# .PCD v0.7 - Point Cloud Data file format
VERSION 0.7
FIELDS x y z intensity
SIZE 4 4 4 4
TYPE F F F F
COUNT 1 1 1 1
WIDTH 1643
HEIGHT 1
VIEWPOINT 0 0 0 1 0 0 0
POINTS 1643
DATA ascii
1.102 2.9549999 0.588 125
1.151 2.5220001 0.71200001 8
1.0650001 2.529 0.64200002 124
1.138 2.961 0.66799998 133
1.025 2.961 0.58700001 110
1.081 2.5150001 0.70300001 25
0.99800003 2.529 0.63599998 128
1.0599999 2.9630001 0.66399997 128
0.94800001 2.9679999 0.58600003 123
1.017 2.5179999 0.69599998 95
0.93800002 2.5439999 0.634 150
0.98199999 2.9630001 0.66000003 129
0.87099999 2.97 0.58499998 132
0.95099998 2.513 0.68800002 90
0.87900001 2.562 0.634 150
0.90600002 2.9619999 0.65700001 130
0.79500002 2.971 0.58399999 139
0.89099997 2.5220001 0.68400002 99
0.80599999 2.5350001 0.62300003 25
0.83099997 2.9619999 0.65399998 146
0.72299999 2.9860001 0.58600003 138
0.82999998 2.5250001 0.67900002 105
0.74299997 2.539 0.62 23
0.75400001 2.9489999 0.648 150
0.58700001 2.7079999 0.53100002 156
0.76999998 2.5320001 0.67500001 126
0.685 2.552 0.61900002 22
0.67400002 2.9170001 0.639 150
0.583 3.0320001 0.59399998 150
0.70999998 2.5369999 0.671 98
0.62400001 2.5580001 0.61699998 95
0.57200003 2.7720001 0.60500002 150
0.57599998 3.4349999 0.67400002 109
0.64899999 2.536 0.66600001 117
0.57599998 2.619 0.62900001 93
0.62099999 3.404 0.74199998 150
0.49200001 3.437 0.67500001 108
0.59200001 2.5469999 0.66399997 102
0.579 2.951 0.70499998 150
0.54400003 3.4330001 0.74699998 100
0.40900001 3.4389999 0.676 109
0.56800002 2.7190001 0.704 150
0.59399998 3.438 0.81800002 97
0.46200001 3.434 0.74599999 89
0.32699999 3.437 0.67799997 101
0.61500001 3.313 0.852 150
0.51300001 3.431 0.81300002 95
0.38100001 3.4330001 0.74599999 98
0.244 3.431 0.67900002 109
0.55900002 3.438 0.87900001 100
0.433 3.434 0.81099999 103
0.30000001 3.428 0.74400002 96
0.162 3.438 0.68199998 114
0.47999999 3.438 0.875 94
0.354 3.438 0.81 97
0.22 3.4349999 0.74699998 96
0.081 3.438 0.685 108
0.40099999 3.431 0.86799997 101
0.27500001 3.4419999 0.80900002 92
0.14 3.4360001 0.74800003 96
0 3.4260001 0.68599999 113
0.32300001 3.4360001 0.866 96
0.19499999 3.4389999 0.80699998 100
0.059999999 3.427 0.74699998 116
-0.081 3.437 0.69199997 107
0.245 3.4330001 0.86199999 99
0.117 3.434 0.80500001 98
-0.018999999 3.441 0.75099999 99
-0.162 3.4330001 0.69499999 107
0.168 3.4300001 0.85799998 91
0.037999999 3.421 0.80199999 118
-0.098999999 3.4349999 0.75199997 95
-0.243 3.434 0.69999999 107
0.090000004 3.428 0.85500002 114
-0.039000001 3.434 0.80500001 100
-0.178 3.4330001 0.75400001 95
-0.32499999 3.437 0.70499998 100
0.013 3.4319999 0.85299999 95
-0.118 3.427 0.80299997 106
-0.259 3.4330001 0.75700003 95
-0.40599999 3.4319999 0.70999998 106
-0.064000003 3.4289999 0.85100001 95
-0.197 3.4400001 0.80699998 101
-0.33899999 3.428 0.759 94
-0.48800001 3.4260001 0.71499997 100
-0.142 3.434 0.85100001 101
-0.27700001 3.434 0.80699998 99
-0.419 3.425 0.76200002 98
-0.57099998 3.4289999 0.722 105
-0.22 3.4289999 0.84899998 90
-0.35600001 3.4300001 0.80699998 94
-0.50199997 3.4349999 0.76899999 94
-0.65499997 3.4319999 0.72899997 97
-0.29800001 3.431 0.84799999 96
-0.435 3.4300001 0.80900002 99
-0.58200002 3.4300001 0.77200001 91
-0.736 3.424 0.73500001 46
-0.377 3.4330001 0.84799999 97
-0.51499999 3.4289999 0.81099999 95
-0.66399997 3.4260001 0.77700001 89
-0.82300001 3.434 0.745 92
-0.456 3.4300001 0.84799999 97
-0.59500003 3.4230001 0.81300002 101
-0.74400002 3.4159999 0.77999997 39
-0.90799999 3.4289999 0.75199997 85
-0.537 3.434 0.84899998 94
-0.67799997 3.4319999 0.81800002 98
-0.82999998 3.4230001 0.787 87
-0.995 3.431 0.76099998 90
-0.61699998 3.4330001 0.85000002 97
-0.611 2.756 0.66000003 8
-0.91399997 3.424 0.79400003 90
-0.65399998 2.0710001 0.465 102
-0.69700003 3.4260001 0.85000002 100
-0.84600002 3.438 0.82800001 41
-1.001 3.425 0.80199999 84
-0.69400001 2.0320001 0.46200001 99
-0.62699997 2.756 0.685 21
-0.75199997 2.78 0.67299998 19
-0.653 2.059 0.486 54
-0.74199998 2.0190001 0.46599999 115
-0.69800001 2.7739999 0.69099998 22
-0.82499999 2.793 0.68000001 22
-0.69499999 2.027 0.484 104
-0.79799998 2.0239999 0.47299999 115
-0.76800001 2.783 0.69599998 23
-0.65499997 2.043 0.50099999 87
-0.74400002 2.016 0.486 107
-0.903 2.1440001 0.509 135
-0.62900001 2.092 0.52499998 1
-0.699 2.02 0.49900001 110
-0.801 2.0239999 0.49399999 120
-0.935 2.082 0.50199997 105
-0.66500002 2.039 0.514 92
-0.74699998 2.0079999 0.5 108
-0.86299998 2.0409999 0.50400001 106
-1.357 2.8440001 0.69700003 22
-0.70700002 2.01 0.509 106
-0.792 1.9859999 0.49900001 94
-0.92799997 2.0610001 0.51499999 66
-1.446 2.8559999 0.71200001 11
-0.74599999 1.975 0.50300002 92
-0.86299998 2.027 0.514 88
-1.563 3.267 0.82800001 25
-1.841 3.4389999 0.87199998 47
-0.80199999 1.984 0.50800002 78
-0.93300003 2.059 0.52700001 10
-1.465 2.8889999 0.74199998 8
-1.9450001 3.4389999 0.88800001 85
-0.88 2.039 0.52600002 81
-1.653 3.431 0.88800001 83
-1.847 3.4419999 0.89700001 73
-2.049 3.4330001 0.90399998 72
-1.576 3.4300001 0.89200002 75
-1.755 3.4389999 0.89999998 35
-1.9450001 3.4319999 0.90799999 65
-1.824 2.901 0.77899998 10
-1.678 3.441 0.90200001 95
-1.857 3.437 0.91000003 80
-1.725 2.8859999 0.77600002 10
-1.9220001 2.9070001 0.79699999 87
-1.775 3.4330001 0.90799999 86
-1.656 2.9030001 0.778 9
-1.83 2.9059999 0.79500002 70
-2.0320001 2.9260001 0.81900001 86
-1.874 3.4289999 0.91500002 42
-1.7460001 2.902 0.78899997 36
-1.929 2.9130001 0.81 90
-2.1389999 2.9319999 0.83899999 86
-1.664 2.8829999 0.77700001 10
-1.837 2.8989999 0.79900002 88
-2.0339999 2.9219999 0.82800001 80
-2.266 2.96 0.866 91
-1.763 2.8959999 0.78899997 44
-1.941 2.9119999 0.81400001 98
-2.148 2.9400001 0.84899998 80
-2.375 2.961 0.88700002 55
-1.859 2.9000001 0.79900002 91
-2.05 2.927 0.83099997 86
-2.2639999 2.954 0.87 86
-2.8900001 3.438 1.054 56
-1.969 2.921 0.815 96
-2.165 2.9430001 0.85000002 89
-2.385 2.9660001 0.89200002 50
-3.029 3.441 1.082 61
-2.079 2.9330001 0.829 85
-2.283 2.9579999 0.86799997 85
-2.895 3.4360001 1.0549999 61
-3.1689999 3.438 1.109 61
-2.191 2.9419999 0.84399998 82
-2.4089999 2.9749999 0.88999999 38
-3.0320001 3.434 1.0779999 62
-3.3110001 3.431 1.137 61
-2.3210001 2.9690001 0.86400002 82
-2.9200001 3.4389999 1.049 65
-3.178 3.4360001 1.105 60
-3.467 3.4330001 1.169 58
-2.5669999 3.1300001 0.926 29
-3.056 3.434 1.068 65
-3.325 3.4330001 1.131 61
-3.5799999 3.3859999 1.188 63
-2.9530001 3.4330001 1.0319999 64
-3.2030001 3.4349999 1.091 60
-3.48 3.4330001 1.16 60
-2.7839999 2.516 0.90899998 1
-3.1029999 3.4400001 1.053 63
-3.3510001 3.4300001 1.114 61
-3.605 3.395 1.178 63
-2.7379999 2.3640001 0.88099998 87
-3.247 3.434 1.072 63
-3.5120001 3.431 1.14 60
-2.806 2.5239999 0.89999998 12
-2.6830001 2.211 0.85100001 101
-3.404 3.434 1.0930001 60
-3.638 3.392 1.155 64
-2.7309999 2.3440001 0.86000001 89
-2.7460001 2.1619999 0.86000001 87
-3.5669999 3.4330001 1.117 60
-2.7920001 2.4849999 0.86799997 35
-2.6370001 2.1600001 0.81699997 50
-2.8440001 2.135 0.87900001 82
-3.7320001 3.4260001 1.1390001 59
-2.7119999 2.3010001 0.82599998 115
-2.773 2.1670001 0.84600002 120
-4.0300002 2.8859999 1.232 27
-2.7690001 2.424 0.82499999 83
-2.721 2.2030001 0.81300002 114
-2.8610001 2.132 0.86000001 49
-3.9820001 2.7179999 1.204 77
-2.6099999 2.178 0.75999999 51
-2.793 2.1559999 0.81900001 128
-3.72 2.641 1.102 47
-4.0679998 2.6440001 1.2180001 63
-2.747 2.184 0.78299999 106
-2.9059999 2.1359999 0.838 39
-3.825 2.5869999 1.118 59
-4.2119999 2.6040001 1.249 2
-2.829 2.141 0.79000002 117
-3.7019999 2.5899999 1.049 1
-4.0890002 2.6300001 1.181 48
-6.9549999 4.0869999 2.0450001 28
-2.983 2.1489999 0.81599998 0
0 0 0 0
-6.9429998 4.244 1.9809999 36
-6.9650002 3.8840001 2.033 31
0 0 0 0
0 0 0 0
-6.9569998 4.0349998 1.9630001 36
-6.9660001 3.6830001 2.017 33
0 0 0 0
-6.9559999 4.1739998 1.885 34
-6.9439998 3.8180001 1.939 36
-6.9549999 3.48 2 34
-6.928 4.2750001 1.795 29
-3.8269999 2.175 1.023 3
-6.9450002 3.6140001 1.921 36
-6.9590001 3.2880001 1.99 5
-3.7980001 2.221 0.96799999 1
-3.8010001 2.0450001 1.003 3
-3.802 1.868 1.0420001 3
-3.0280001 1.348 0.861 71
-3.816 2.1099999 0.95700002 3
-3.8139999 1.939 0.995 4
-3.0610001 1.419 0.83200002 52
-3.0480001 1.276 0.86199999 94
-3.812 1.9910001 0.94199997 4
-3.0409999 1.457 0.78500003 66
-3.013 1.314 0.81199998 112
-3.085 1.212 0.86900002 12
-3.03 1.4910001 0.73799998 83
-3.007 1.355 0.76800001 92
-3.0610001 1.252 0.81999999 84
-4.0419998 1.485 1.1339999 36
-3.0079999 1.392 0.72299999 105
-3.03 1.28 0.76599997 117
-3.1440001 1.2029999 0.83600003 121
-4.1490002 1.419 1.16 12
-3.027 1.314 0.71799999 124
-3.062 1.21 0.76700002 99
-3.359 1.198 0.88800001 34
-6.9369998 2.2030001 1.9349999 40
-3.053 1.239 0.71600002 118
-3.161 1.165 0.78500003 111
-3.507 1.16 0.92299998 8
-6.934 2.0339999 1.929 42
-3.115 1.178 0.72299999 102
-3.48 1.1900001 0.85799998 36
-3.329 1.018 0.87199998 13
-6.9380002 1.867 1.927 44
-3.3829999 1.188 0.77700001 54
-3.3150001 1.048 0.81099999 113
-6.9299998 1.947 1.808 43
-6.9369998 1.7029999 1.924 44
-3.263 1.058 0.74199998 99
-3.3900001 0.98500001 0.824 3
-6.941 1.78 1.804 45
-6.9400001 1.541 1.923 41
-3.2809999 0.97799999 0.73900002 101
-6.9380002 1.84 1.677 45
-6.9429998 1.613 1.799 42
-6.934 1.3789999 1.921 45
-3.878 1.054 0.86699998 35
-6.9359999 1.6670001 1.668 47
-6.9299998 1.444 1.7920001 45
-6.9450002 1.223 1.923 44
-4.0440001 0.99599999 0.89700001 63
-3.2049999 0.69099998 0.76700002 30
-6.9390001 1.2819999 1.79 45
-6.9359999 1.063 1.9220001 43
-3.188 0.704 0.70200002 54
-3.223 0.616 0.76899999 24
-6.9299998 1.118 1.786 43
-6.9320002 0.90700001 1.923 43
-3.2309999 0.63200003 0.708 128
-3.279 0.54799998 0.77899998 1
-6.9369998 0.95700002 1.786 44
-6.9489999 0.75199997 1.931 41
-3.286 0.56099999 0.71600002 23
-6.9320002 0.991 1.643 47
-6.9369998 0.79699999 1.785 43
-6.9419999 0.597 1.933 46
-4.0380001 0.58899999 0.87599999 99
-6.9380002 0.82599998 1.641 48
-6.9419999 0.63700002 1.7869999 43
-4.039 0.25799999 1.127 91
-4.0349998 0.49000001 0.87199998 105
-6.9369998 0.66000003 1.6390001 48
-4.0320001 0.27700001 1.039 73
-6.941 0.28999999 1.942 44
-3.2190001 0.31200001 0.69300002 7
-4.0370002 0.289 0.95300001 42
-6.9349999 0.31999999 1.789 44
-6.9299998 0.13699999 1.9450001 43
-3.1600001 0.229 0.67799997 42
-6.9400001 0.33399999 1.637 34
-6.9400001 0.161 1.793 42
-6.9299998 -0.013 1.952 42
0 0 0 0
-6.941 0.17 1.638 46
-6.9289999 0.0040000002 1.794 44
-6.0749998 -0.146 1.7180001 42
-4.04 0.097000003 0.86500001 10
-4.1399999 0.0040000002 0.97799999 0
-6.0929999 -0.13500001 1.5829999 39
-6.0739999 -0.27900001 1.725 42
-4.0409999 0 0.86400002 107
-6.0809999 -0.13600001 1.439 41
-6.0770001 -0.273 1.584 41
-6.0679998 -0.41299999 1.733 41
-4.0469999 -0.097000003 0.866 113
-6.072 -0.278 1.4400001 56
-6.0689998 -0.41 1.587 40
-6.0749998 -0.54699999 1.744 42
-4.0419998 -0.19599999 0.866 112
-6.0640001 -0.41999999 1.442 56
-6.0689998 -0.55000001 1.595 41
-6.0739999 -0.68099999 1.753 42
-4.04 -0.294 0.86699998 99
-6.086 -0.56699997 1.452 59
-6.066 -0.68800002 1.601 41
-4.1090002 -0.55199999 1.193 136
-4.0479999 -0.39300001 0.87099999 91
-6.073 -0.70999998 1.455 56
-4.1059999 -0.56099999 1.09 127
-4.1069999 -0.64300001 1.201 142
-4.0479999 -0.493 0.87300003 72
-4.539 -0.639 1.0930001 48
-4.1139998 -0.65700001 1.098 136
-4.1059999 -0.736 1.209 125
-4.0370002 -0.59100002 0.87400001 72
-4.5830002 -0.755 1.109 53
-4.1040001 -0.75199997 1.103 127
-4.1170001 -0.83099997 1.221 54
-4.1799998 -0.71700001 0.90899998 68
-4.6420002 -0.87699997 1.1289999 47
-6.9359999 -1.434 1.877 37
-4.0560002 -0.912 1.2130001 42
-4.046 -0.79500002 0.88499999 51
-4.7719998 -1.0190001 1.169 27
-4.033 -0.92900002 1.099 89
-3.984 -0.98699999 1.201 104
-4.0310001 -0.89399999 0.88700002 59
-3.9909999 -0.95099998 0.98400003 99
-3.9809999 -1.013 1.094 94
-3.987 -1.08 1.212 109
-3.997 -0.98900002 0.88499999 101
-3.9890001 -1.049 0.991 110
-3.984 -1.11 1.105 86
-3.9909999 -1.176 1.225 110
-3.994 -1.092 0.89099997 112
-3.99 -1.151 1 106
-6.9310002 -2.1029999 1.939 47
-6.928 -2.2060001 2.148 42
-3.993 -1.198 0.898 103
-6.9400001 -2.1800001 1.755 50
-6.9320002 -2.2750001 1.9579999 46
-6.9159999 -2.3699999 2.1659999 47
-3.99 -1.303 0.90600002 117
-6.9219999 -2.355 1.768 45
-9.5019999 -3.358 2.7119999 18
-6.9949999 -2.5680001 2.214 9
-3.9849999 -1.41 0.91399997 107
-4.033 -1.478 1.041 0
0 0 0 0
-6.9530001 -2.7249999 2.2249999 19
-3.9920001 -1.522 0.92500001 96
-4.033 -1.587 1.052 0
-9.316 -3.776 2.7190001 2
-6.9640002 -2.9070001 2.2550001 31
-3.9879999 -1.633 0.93400002 58
-10.163 -4.2779999 2.684 25
-9.1099997 -3.934 2.6889999 43
-6.9359999 -3.073 2.2720001 38
-3.9860001 -1.747 0.94599998 39
-10.013 -4.494 2.677 25
-8.9569998 -4.112 2.678 26
-6.9289999 -3.2520001 2.2980001 39
-3.983 -1.862 0.95700002 16
-9.8409996 -4.6989999 2.6670001 24
-4.02 -1.956 1.2180001 14
-3.984 -1.977 1.339 81
-3.994 -1.987 0.97299999 90
-3.9960001 -2.0239999 1.098 88
-3.984 -2.052 1.224 79
-3.9890001 -2.0880001 1.359 83
-3.9949999 -2.1110001 0.98799998 88
-3.9879999 -2.1389999 1.1109999 71
-3.9909999 -2.171 1.243 80
-3.984 -2.198 1.377 68
-4.027 -2.2550001 1.012 66
-4.046 -2.2939999 1.145 71
-4.0450001 -2.3199999 1.279 65
-4.0479999 -2.349 1.42 66
-4.052 -2.4000001 1.035 67
-4.052 -2.425 1.166 24
-4.0339999 -2.437 1.296 67
-3.9849999 -2.4289999 1.418 71
-4.0489998 -2.533 1.053 49
-4.046 -2.553 1.184 53
-4.0240002 -2.556 1.314 83
-3.9649999 -2.5369999 1.434 107
-4.0469999 -2.6700001 1.071 79
-4.0500002 -2.6900001 1.206 66
-4.039 -2.6960001 1.342 65
-4.0419998 -2.7119999 1.4859999 67
-4.0479999 -2.816 1.0930001 66
-3.3510001 -2.3410001 1.017 12
-3.3469999 -2.345 1.132 18
-3.3499999 -2.355 1.253 35
-3.2 -2.3429999 0.88099998 39
-3.191 -2.3429999 0.98799998 38
-3.201 -2.3529999 1.103 37
-3.1930001 -2.349 1.215 36
-3.04 -2.342 0.85600001 50
-3.043 -2.345 0.96100003 48
-3.0539999 -2.352 1.073 42
-3.0550001 -2.352 1.1849999 41
-3.01 -2.437 0.866 27
-3.0209999 -2.444 0.97500002 27
-3.0339999 -2.448 1.0880001 32
-3.0450001 -2.451 1.2029999 42
-3.0409999 -2.5869999 0.89600003 28
-3.003 -2.5469999 0.99000001 26
-3.0309999 -2.562 1.11 28
-3.03 -2.549 1.221 19
-3.039 -2.7160001 0.91799998 19
-2.9100001 -2.5880001 0.98199999 16
-3.043 -2.691 1.1390001 28
-3.04 -2.6730001 1.251 20
-3.016 -2.829 0.935 29
-2.8380001 -2.6470001 0.98199999 15
-3.0280001 -2.803 1.16 27
-3.03 -2.783 1.274 19
-2.8800001 -2.8369999 0.917 19
-2.744 -2.6819999 0.97399998 15
-2.9400001 -2.846 1.153 19
-2.964 -2.8440001 1.274 18
-2.461 -2.5439999 0.80599999 53
-2.7 -2.7650001 0.98400003 13
-2.753 -2.79 1.107 20
-2.835 -2.8410001 1.247 19
-2.2550001 -2.4489999 0.76099998 23
-2.29 -2.4579999 0.85799998 24
-2.402 -2.546 0.991 53
-2.727 -2.8529999 1.228 19
-2.151 -2.4519999 0.74900001 19
-2.5139999 -2.8280001 0.96899998 14
-2.329 -2.5829999 0.986 11
-2.3010001 -2.516 1.062 16
-2.049 -2.4530001 0.73699999 22
-2.151 -2.5369999 0.85500002 9
-2.1359999 -2.4790001 0.93000001 12
-2.1800001 -2.4890001 1.0319999 13
-1.954 -2.4579999 0.727 26
-2.158 -2.6689999 0.88499999 7
-2.154 -2.6170001 0.96600002 7
-2.1440001 -2.559 1.044 3
-1.85 -2.447 0.713 25
-2.164 -2.809 0.917 6
-2.1589999 -2.7479999 0.99800003 6
-2.0910001 -2.608 1.046 2
-1.751 -2.4360001 0.70099998 26
-1.938 -2.6400001 0.85000002 2
-2.1329999 -2.8440001 1.018 7
-2.027 -2.6459999 1.045 2
-1.663 -2.4360001 0.69199997 27
-1.773 -2.5380001 0.80599999 7
-2.029 -2.836 1 8
-1.954 -2.6670001 1.0369999 2
-1.585 -2.448 0.68699998 24
-1.726 -2.598 0.815 3
-1.937 -2.8410001 0.98900002 7
-1.877 -2.6819999 1.028 1
-1.499 -2.441 0.67799997 42
-1.768 -2.803 0.86900002 11
-1.846 -2.8429999 0.977 8
-1.825 -2.733 1.034 0
-1.425 -2.451 0.67400002 24
-1.475 -2.464 0.755 23
-1.756 -2.8440001 0.96600002 9
-1.762 -2.767 1.033 1
-1.348 -2.4530001 0.66900003 29
-1.457 -2.566 0.77899998 74
-1.4450001 -2.4619999 0.82599998 24
-1.507 -2.4860001 0.91600001 9
-1.2690001 -2.448 0.662 48
-1.337 -2.4879999 0.74800003 25
-1.5829999 -2.8429999 0.94400001 12
-1.474 -2.5550001 0.93099999 14
-1.202 -2.4630001 0.662 45
-1.279 -2.52 0.75099999 20
-1.293 -2.451 0.80599999 25
-1.425 -2.6010001 0.93699998 14
-1.13 -2.4630001 0.65700001 49
-1.212 -2.5320001 0.74900001 86
-1.2690001 -2.5420001 0.82800001 32
-1.2819999 -2.464 0.87800002 18
-1.0549999 -2.454 0.65200001 55
-1.137 -2.526 0.74199998 111
-1.2 -2.546 0.82200003 64
-1.276 -2.589 0.91299999 14
-0.986 -2.4530001 0.648 63
-1.0650001 -2.5190001 0.73500001 145
-1.13 -2.5450001 0.815 72
-1.25 -2.684 0.93800002 12
-0.91900003 -2.4549999 0.64600003 63
-0.99699998 -2.523 0.73199999 150
-1.079 -2.5840001 0.82099998 75
-1.199 -2.727 0.94400001 150
-0.85100001 -2.4530001 0.64399999 62
-0.93699998 -2.5420001 0.73400003 159
-1.118 -2.858 0.90200001 76
-1.1670001 -2.823 0.96899998 113
-0.78600001 -2.4519999 0.64200002 64
-0.86699998 -2.533 0.72799999 157
-1.043 -2.855 0.89499998 76
-1.109 -2.8559999 0.972 76
-0.72299999 -2.457 0.64200002 64
-0.80400002 -2.539 0.72600001 151
-0.972 -2.8610001 0.89200002 74
-1.039 -2.862 0.96700001 74
-0.65700001 -2.448 0.639 68
-0.73000002 -2.507 0.71499997 150
-0.89899999 -2.855 0.88499999 83
-0.96700001 -2.8559999 0.958 80
-0.597 -2.4560001 0.63999999 73
-0.66399997 -2.494 0.70899999 150
-0.82800001 -2.849 0.87900001 86
-0.89899999 -2.8599999 0.95300001 80
-0.53500003 -2.4560001 0.64099997 64
-0.597 -2.47 0.70099998 150
-0.75999999 -2.855 0.87699997 86
-0.829 -2.8540001 0.94499999 77
-0.47400001 -2.4549999 0.64099997 67
-0.53299999 -2.4549999 0.69599998 101
-0.69 -2.8540001 0.87400001 75
-0.76099998 -2.8540001 0.94 79
-0.41299999 -2.4560001 0.64200002 71
-0.47299999 -2.4519999 0.69400001 88
-0.55599999 -2.55 0.778 73
-0.69499999 -2.859 0.93599999 88
-0.35299999 -2.4530001 0.64300001 70
-0.41499999 -2.4579999 0.69599998 117
-0.50700003 -2.602 0.792 150
-0.62599999 -2.8469999 0.92799997 108
-0.294 -2.4549999 0.64499998 64
-0.35800001 -2.46 0.69599998 105
-0.48899999 -2.8529999 0.86699998 79
-0.56300002 -2.8540001 0.926 88
-0.26300001 -2.7509999 0.72500002 69
-0.29899999 -2.4590001 0.69700003 114
-0.42199999 -2.849 0.86400002 80
-0.498 -2.858 0.92400002 90
-0.205 -2.852 0.755 81
-0.26300001 -2.6700001 0.75800002 78
-0.35600001 -2.849 0.86299998 82
-0.433 -2.8570001 0.921 81
-0.13699999 -2.855 0.759 80
-0.215 -2.858 0.81199998 71
-0.271 -2.6470001 0.80199999 99
-0.368 -2.8559999 0.91799998 90
-0.07 -2.855 0.76300001 83
-0.148 -2.855 0.81400001 79
-0.227 -2.8499999 0.86299998 61
-0.294 -2.7609999 0.88499999 150
-0.0020000001 -2.852 0.76700002 25
-0.082000002 -2.8540001 0.81599998 78
-0.162 -2.8540001 0.86400002 84
-0.23999999 -2.846 0.91000003 23
0.056000002 -2.4949999 0.67500001 0
-0.016000001 -2.8540001 0.81900001 74
-0.097999997 -2.8540001 0.86500001 85
-0.177 -2.846 0.90899998 30
0.116 -2.51 0.68400002 1
0.043000001 -2.55 0.73500001 7
-0.033 -2.8529999 0.866 83
-0.114 -2.852 0.91000003 26
0.177 -2.5339999 0.69499999 4
0.101 -2.5090001 0.72600001 10
0.029999999 -2.8540001 0.86799997 82
-0.050000001 -2.8540001 0.91000003 27
0.236 -2.5320001 0.69999999 4
0.17 -2.6900001 0.78200001 15
0.094999999 -2.8540001 0.87 81
0.012 -2.8510001 0.90899998 27
0.292 -2.4879999 0.69400001 3
0.245 -2.8329999 0.829 77
0.16 -2.8510001 0.87199998 81
0.075000003 -2.8510001 0.90899998 27
0.35100001 -2.4879999 0.69999999 5
0.31200001 -2.8469999 0.838 78
0.22400001 -2.8469999 0.87400001 80
0.139 -2.849 0.90899998 25
0.419 -2.543 0.72299999 7
0.38 -2.8570001 0.847 80
0.28999999 -2.852 0.87900001 80
0.20100001 -2.836 0.90600002 23
0.54000002 -2.8540001 0.81999999 81
0.44600001 -2.8529999 0.852 78
0.354 -2.849 0.88200003 74
0.26499999 -2.839 0.90899998 22
0.60500002 -2.836 0.824 26
0.51300001 -2.848 0.85699999 83
0.421 -2.855 0.88800001 82
0.33000001 -2.846 0.91299999 23
0.61199999 -2.5699999 0.755 21
0.58099997 -2.848 0.86500001 48
0.48699999 -2.852 0.89200002 80
0.39399999 -2.8380001 0.91299999 22
0.73900002 -2.813 0.83600003 150
0.63 -2.7620001 0.84600002 27
0.55199999 -2.8440001 0.89499998 61
0.46000001 -2.846 0.91799998 23
0.81999999 -2.8499999 0.85799998 79
0.67900002 -2.6930001 0.833 78
0.61199999 -2.8099999 0.88999999 18
0.52399999 -2.8380001 0.91900003 33
0.89099997 -2.846 0.86799997 74
0.78899997 -2.8499999 0.88999999 78
0.61299998 -2.54 0.81 19
0.58899999 -2.832 0.921 24
0.96499997 -2.849 0.88099998 69
0.861 -2.8540001 0.90100002 46
0.74400002 -2.802 0.90100002 22
0.59899998 -2.5910001 0.847 19
1.0420001 -2.855 0.89600003 66
0.926 -2.8340001 0.90399998 21
0.82200003 -2.8340001 0.91799998 24
0.66900003 -2.622 0.86199999 18
1.108 -2.832 0.90200001 20
0.99900001 -2.835 0.91600001 22
0.89099997 -2.832 0.92500001 22
0.78799999 -2.823 0.93300003 9
1.187 -2.8380001 0.91799998 23
1.074 -2.8399999 0.92900002 21
0.95700002 -2.8169999 0.92900002 9
0.85000002 -2.8010001 0.93099999 6
1.2589999 -2.825 0.92900002 10
1.1339999 -2.802 0.92799997 8
1.018 -2.7869999 0.92799997 5
0.91600001 -2.79 0.93400002 5
1.321 -2.79 0.93300003 5
1.202 -2.786 0.935 5
1.084 -2.7709999 0.93300003 6
0.98199999 -2.777 0.93699998 6
1.395 -2.78 0.94599998 6
1.27 -2.7679999 0.94300002 7
1.151 -2.757 0.93800002 7
1.048 -2.763 0.93900001 7
1.4400001 -2.7130001 0.93900001 5
1.3329999 -2.7390001 0.94599998 7
1.219 -2.7409999 0.94400001 6
1.114 -2.7479999 0.94199997 7
1.461 -2.6040001 0.91900003 9
1.378 -2.6760001 0.93900001 6
1.279 -2.7090001 0.94400001 6
1.179 -2.7279999 0.94400001 7
0 0 0 0
1.383 -2.5409999 0.90600002 16
1.308 -2.6140001 0.92299998 7
1.242 -2.7049999 0.94499999 6
0.50400001 -0.81 0.29699999 16
1.459 -2.5420001 0.921 18
1.3380001 -2.53 0.90499997 19
1.266 -2.5999999 0.91799998 8
0.528 -0.80699998 0.30199999 11
0 0 0 0
1.416 -2.536 0.92000002 18
1.306 -2.5339999 0.90399998 18
0.53200001 -0.77399999 0.296 10
0.51200002 -0.80500001 0.30199999 10
0 0 0 0
1.382 -2.539 0.917 20
0.52999997 -0.73400003 0.287 10
0.528 -0.79000002 0.30199999 9
0.50199997 -0.81099999 0.303 10
1.471 -2.5610001 0.93599999 21
0.53100002 -0.70200002 0.28099999 14
0.537 -0.76499999 0.29800001 7
0.52100003 -0.79900002 0.303 10
0 0 0 0
0.54000002 -0.68099999 0.278 15
0.52999997 -0.72000003 0.28600001 9
0.53399998 -0.77999997 0.301 9
0.50700003 -0.796 0.29899999 11
0.56900001 -0.685 0.287 10
0.542 -0.70200002 0.285 9
0.52600002 -0.73199999 0.28799999 8
0.52399999 -0.78399998 0.29800001 10
0.58700001 -0.67500001 0.28999999 9
0.55699998 -0.68900001 0.28600001 9
0.528 -0.70099998 0.28099999 9
0.53100002 -0.755 0.292 7
0.68099999 -0.74800003 0.33000001 8
0.57300001 -0.676 0.287 9
0.53799999 -0.68099999 0.278 9
0.52600002 -0.713 0.28 9
0.73900002 -0.77600002 0.35100001 11
0.616 -0.69499999 0.30199999 7
0.55500001 -0.671 0.27900001 9
0.53100002 -0.68699998 0.27399999 9
0.76599997 -0.76800001 0.35800001 10
0.71200001 -0.76700002 0.34099999 7
0.57599998 -0.66500002 0.28299999 8
0.54500002 -0.67199999 0.273 9
0.78600001 -0.75400001 0.361 11
0.74900001 -0.77100003 0.352 8
0.67699999 -0.74699998 0.324 7
0.56599998 -0.66600001 0.27599999 9
0.81 -0.74199998 0.36700001 12
0.77200001 -0.75999999 0.35600001 10
0.73699999 -0.77600002 0.345 9
0.64700001 -0.727 0.30700001 9
0.82499999 -0.72299999 0.368 12
0.79400003 -0.74699998 0.36000001 8
0.76200002 -0.76700002 0.34900001 9
0.71899998 -0.77200001 0.333 3
0.84500003 -0.708 0.37200001 12
0.81800002 -0.73500001 0.36399999 11
0.78200001 -0.75199997 0.35100001 10
0.74400002 -0.76200002 0.336 10
0.875 -0.70099998 0.38 11
0.833 -0.71499997 0.36500001 11
0.80699998 -0.741 0.35499999 8
0.773 -0.75599998 0.34099999 11
1.245 -0.95099998 0.53399998 4
0.852 -0.699 0.36700001 11
0.82800001 -0.72600001 0.35699999 11
0.792 -0.74000001 0.34099999 11
3.918 -2.859 1.663 45
0.89700001 -0.70200002 0.38100001 8
0.84799999 -0.70999998 0.359 12
0.81800002 -0.72899997 0.345 9
4.1100001 -2.862 1.726 33
3.812 -2.8499999 1.598 5
0.875 -0.699 0.36399999 10
0.84500003 -0.71899998 0.34900001 11
4.3039999 -2.855 1.79 33
4.006 -2.8559999 1.658 47
1.244 -0.94800001 0.50999999 5
0.85900003 -0.69700003 0.34799999 12
4.5229998 -2.859 1.864 34
4.1999998 -2.8529999 1.717 47
3.9230001 -2.8510001 1.585 48
1.003 -0.77600002 0.39899999 6
4.7579999 -2.8610001 1.944 34
4.4130001 -2.855 1.783 33
4.1269999 -2.858 1.643 48
3.8740001 -2.8570001 1.515 11
5.0089998 -2.8640001 2.03 33
4.6420002 -2.859 1.855 34
4.3340001 -2.858 1.701 47
4.0679998 -2.8559999 1.564 51
5.276 -2.8640001 2.122 35
4.8889999 -2.8599999 1.934 33
4.559 -2.858 1.766 34
4.289 -2.865 1.622 35
5.5640001 -2.8629999 2.223 33
5.1550002 -2.8629999 2.02 33
4.8039999 -2.8610001 1.8380001 34
4.5050001 -2.8599999 1.678 35
5.8530002 -2.8510001 2.3239999 36
5.4510002 -2.8670001 2.1170001 32
5.073 -2.8640001 1.919 34
4.7509999 -2.8610001 1.744 35
6.2309999 -2.8659999 2.46 31
5.6719999 -2.823 2.1849999 38
5.3470001 -2.859 2 33
5.0250001 -2.868 1.819 35
6.4159999 -2.7809999 2.5209999 25
6.0809999 -2.859 2.3239999 28
5.652 -2.858 2.092 33
5.3000002 -2.8629999 1.8940001 34
6.8720002 -2.803 2.687 53
6.4770002 -2.8699999 2.4579999 29
5.9990001 -2.865 2.1989999 29
5.6009998 -2.8599999 1.976 33
6.9580002 -2.6619999 2.7090001 57
6.697 -2.79 2.5250001 28
6.3829999 -2.869 2.319 29
5.9619999 -2.8710001 2.079 36
6.9759998 -2.494 2.7060001 54
7.1599998 -2.7969999 2.6819999 52
6.7540002 -2.8529999 2.4330001 24
6.3559999 -2.878 2.1919999 30
6.9959998 -2.3299999 2.7049999 55
7.2680001 -2.652 2.7090001 57
6.9749999 -2.76 2.4920001 48
6.7119999 -2.8499999 2.2920001 24
7.0370002 -2.1730001 2.714 55
7.303 -2.48 2.7090001 53
7.1620002 -2.6429999 2.5409999 61
7.198 -2.8599999 2.434 21
2.8429999 -0.81 1.094 17
7.3340001 -2.309 2.7079999 56
7.1440001 -2.4519999 2.5179999 44
7.526 -2.786 2.5220001 21
2.8399999 -0.74299997 1.091 75
2.8529999 -0.82800001 1.049 0
7.152 -2.2739999 2.5050001 46
8.0880003 -2.7820001 2.687 49
2.849 -0.67900002 1.0930001 75
2.8510001 -0.759 1.045 75
7.1630001 -2.0969999 2.4949999 13
8.1899996 -2.6029999 2.7 57
2.8429999 -0.61299998 1.09 77
2.845 -0.68900001 1.04 78
2.842 -0.76099998 0.98500001 88
8.25 -2.4089999 2.701 51
2.8469999 -0.55000001 1.091 82
2.8429999 -0.62199998 1.036 83
2.845 -0.69199997 0.98199999 81
2.846 -0.75800002 0.92500001 88
2.845 -0.48500001 1.09 82
2.8499999 -0.55800003 1.0369999 82
2.8410001 -0.62199998 0.977 89
2.845 -0.68599999 0.92000002 95
2.846 -0.421 1.091 88
2.8399999 -0.48899999 1.0319999 88
2.8469999 -0.55500001 0.97500002 90
2.8469999 -0.61500001 0.91600001 93
2.848 -0.359 1.092 87
2.845 -0.42500001 1.033 87
2.836 -0.48500001 0.96899998 87
2.842 -0.54400003 0.91000003 97
2.8469999 -0.296 1.094 88
2.8440001 -0.361 1.0319999 87
2.8429999 -0.41999999 0.96899998 89
2.8440001 -0.47600001 0.90600002 95
2.8440001 -0.234 1.094 88
2.839 -0.296 1.03 85
2.845 -0.354 0.96799999 87
2.842 -0.40599999 0.903 93
2.8429999 -0.17299999 1.095 83
2.849 -0.233 1.034 80
2.8410001 -0.287 0.96600002 90
2.842 -0.338 0.89999998 92
2.8440001 -0.111 1.099 84
2.8469999 -0.169 1.034 85
2.8410001 -0.221 0.96499997 83
2.8429999 -0.27000001 0.89899999 91
7.072 -0.124 2.74 55
2.8429999 -0.104 1.035 80
2.848 -0.155 0.96799999 91
2.845 -0.20100001 0.898 90
7.0539999 0.028999999 2.7420001 56
7.46 -0.108 2.72 63
2.8499999 -0.089000002 0.96899998 49
2.8410001 -0.133 0.89600003 96
7.0359998 0.18099999 2.7460001 54
7.4530001 0.057999998 2.724 58
4.0040002 -0.033 1.363 57
8.5869999 -0.198 2.7090001 28
7.0050001 0.33000001 2.743 52
7.4590001 0.222 2.733 60
4.0079999 0.057 1.3660001 58
8.5790005 0.0040000002 2.7060001 45
6.9749999 0.479 2.743 54
7.4510002 0.389 2.7390001 61
3.99 0.149 1.363 49
8.5699997 0.208 2.7060001 46
6.9489999 0.62800002 2.7460001 53
7.4450002 0.55500001 2.7460001 57
3.9879999 0.242 1.3660001 71
8.573 0.412 2.71 51
6.9320002 0.77700001 2.753 55
7.415 0.72000003 2.747 57
8.0120001 0.67199999 2.7520001 49
3.9849999 0.287 1.263 121
6.8930001 0.92299998 2.753 54
7.401 0.88700002 2.7550001 55
7.9840002 0.85600001 2.753 57
8.6450005 0.833 2.747 54
6.8579998 1.069 2.7550001 54
7.3730001 1.05 2.7579999 41
7.9229999 1.036 2.744 75
8.6239996 1.039 2.7490001 53
6.823 1.214 2.7590001 54
7.3299999 1.211 2.757 58
7.8870001 1.216 2.743 110
8.6029997 1.245 2.753 43
6.7719998 1.355 2.756 53
7.303 1.374 2.763 54
7.868 1.401 2.7520001 82
8.566 1.449 2.7539999 52
6.7389998 1.499 2.7620001 53
7.2490001 1.5319999 2.76 56
7.855 1.586 2.763 80
8.5389996 1.6569999 2.76 44
6.677 1.636 2.757 56
7.2049999 1.691 2.763 57
7.848 1.775 2.7780001 77
8.4840002 1.858 2.7579999 54
6.6339998 1.778 2.7609999 56
7.1739998 1.853 2.7709999 61
7.8010001 1.955 2.7809999 68
4.7810001 1.168 1.5650001 4
6.592 1.918 2.766 56
7.1100001 2.007 2.7679999 55
7.1550002 1.971 2.5710001 49
4.7399998 1.279 1.562 20
6.527 2.053 2.763 55
7.059 2.1630001 2.7709999 60
7.1589999 2.151 2.592 48
8.3290005 2.4649999 2.7679999 54
6.4310002 2.174 2.747 60
7.0089998 2.319 2.776 58
7.3800001 2.4030001 2.6949999 68
8.2770004 2.665 2.7720001 54
6.3769999 2.309 2.75 57
6.9400001 2.4690001 2.7739999 58
7.3629999 2.589 2.714 69
8.2229996 2.8670001 2.78 43
6.3509998 2.454 2.766 55
6.8740001 2.6199999 2.7750001 56
7.4180002 2.802 2.7620001 63
8.1400003 3.0599999 2.779 48
6.2989998 2.589 2.7720001 51
6.809 2.77 2.7780001 55
7.3909998 2.99 2.7809999 54
8.066 3.256 2.7839999 53
6.2399998 2.723 2.776 54
6.7360001 2.918 2.779 55
7.3210001 3.1619999 2.786 60
7.9400001 3.4300001 2.7720001 45
6.171 2.8529999 2.7780001 53
6.6690001 3.0669999 2.783 57
7.2480001 3.332 2.7909999 59
7.382 3.4030001 2.609 25
6.0970001 2.9779999 2.777 54
6.6009998 3.217 2.789 57
6.842 3.3380001 2.6670001 36
7.026 3.444 2.5139999 26
6.0409999 3.112 2.7850001 55
6.5279999 3.3610001 2.7920001 57
6.6739998 3.45 2.6359999 32
6.6589999 3.4649999 2.415 28
5.967 3.2360001 2.786 55
6.0999999 3.3150001 2.6440001 57
6.3280001 3.4590001 2.5339999 31
6.2659998 3.4560001 2.306 33
5.8860002 3.3570001 2.7850001 56
5.994 3.4319999 2.6340001 33
5.9840002 3.4549999 2.431 34
5.9200001 3.4530001 2.2119999 35
5.665 3.395 2.7179999 49
5.7259998 3.45 2.553 34
5.6799998 3.457 2.3429999 37
5.6100001 3.457 2.1300001 38
5.3790002 3.381 2.6170001 38
5.4559999 3.457 2.47 39
5.3920002 3.4560001 2.26 36
5.3169999 3.4549999 2.053 37
5.2389998 3.4519999 2.5880001 37
5.191 3.4530001 2.3870001 36
5.1240001 3.454 2.1830001 38
5.0479999 3.4579999 1.985 37
5.0139999 3.46 2.516 35
4.9549999 3.4579999 2.3169999 39
4.8769999 3.454 2.1140001 37
4.8000002 3.46 1.923 38
4.783 3.4530001 2.4389999 38
4.7189999 3.4519999 2.244 38
4.6490002 3.4579999 2.053 38
4.5630002 3.4590001 1.864 39
4.5799999 3.4590001 2.375 36
4.513 3.4579999 2.1849999 38
4.323 3.3740001 1.946 59
4.3319998 3.451 1.806 38
4.3829999 3.4590001 2.312 38
4.2969999 3.448 2.1199999 49
4.2150002 3.45 1.936 52
4.1240001 3.4519999 1.757 55
4.1880002 3.4530001 2.25 37
4.1090002 3.451 2.0669999 52
4.0219998 3.451 1.886 54
3.931 3.4549999 1.7130001 54
4.0029998 3.447 2.191 36
3.9289999 3.4519999 2.016 55
3.836 3.45 1.839 53
3.74 3.45 1.668 56
3.8369999 3.451 2.1429999 52
3.7620001 3.4560001 1.972 55
3.6570001 3.4460001 1.794 54
3.559 3.447 1.628 55
3.674 3.4489999 2.0929999 53
3.586 3.4460001 1.9220001 55
3.4879999 3.4419999 1.752 58
3.3959999 3.451 1.595 57
3.52 3.4489999 2.0480001 54
3.431 3.448 1.881 57
3.3329999 3.447 1.717 58
3.237 3.4519999 1.561 58
3.3710001 3.4489999 2.0050001 57
3.283 3.4489999 1.8430001 58
3.184 3.4489999 1.683 58
3.089 3.4579999 1.534 61
3.2309999 3.45 1.966 57
3.1359999 3.4460001 1.8049999 58
3.039 3.4489999 1.65 59
2.9400001 3.4549999 1.503 60
3.0940001 3.4489999 1.927 58
3.0020001 3.45 1.773 58
2.9000001 3.4489999 1.62 61
2.7969999 3.4530001 1.476 62
2.9660001 3.4530001 1.8940001 59
2.872 3.454 1.743 59
2.7650001 3.4489999 1.592 60
2.6630001 3.4530001 1.452 64
2.8329999 3.4449999 1.8559999 61
2.7379999 3.447 1.709 62
2.638 3.451 1.567 60
2.529 3.45 1.427 63
2.714 3.4489999 1.826 60
2.615 3.447 1.681 62
2.51 3.448 1.54 65
2.3959999 3.4389999 1.402 64
2.5969999 3.451 1.798 61
2.497 3.4489999 1.655 65
2.3900001 3.448 1.518 68
2.279 3.4449999 1.385 71
2.4820001 3.4519999 1.77 61
2.3740001 3.4400001 1.627 66
2.276 3.4519999 1.498 69
2.1670001 3.454 1.37 52
2.3659999 3.4430001 1.738 60
2.27 3.4519999 1.608 67
2.1570001 3.4419999 1.474 68
1.477 2.4849999 0.97399998 120
2.26 3.447 1.715 67
2.1600001 3.45 1.585 69
1.51 2.54 1.074 30
1.401 2.4920001 0.96600002 117
2.154 3.4449999 1.6900001 67
1.517 2.549 1.156 30
1.448 2.5699999 1.073 11
1.3279999 2.5020001 0.95899999 110
1.513 2.539 1.229 32
1.52 2.6900001 1.205 12
1.3329999 2.5009999 1.033 25
1.256 2.51 0.95300001 91
1.483 2.618 1.251 44
1.494 2.7880001 1.234 37
1.253 2.4879999 1.017 56
1.1950001 2.54 0.95599997 85
1.505 2.7950001 1.319 8
1.476 2.908 1.273 77
1.183 2.49 1.008 76
1.219 2.7620001 1.031 42
1.493 2.924 1.364 32
1.4069999 2.9330001 1.27 71
1.113 2.493 1 150
1.159 2.806 1.039 71
1.433 2.964 1.367 31
1.352 2.9890001 1.2819999 136
1.045 2.494 0.99199998 94
1.113 2.8900001 1.063 51
1.577 3.45 1.574 38
1.276 3 1.274 95
0.98199999 2.506 0.98900002 98
1.038 2.9030001 1.061 60
1.487 3.4489999 1.557 35
1.201 3.0090001 1.267 83
0.91500002 2.5050001 0.98100001 101
0.96499997 2.9159999 1.0599999 150
1.4 3.45 1.5420001 41
1.125 3.0139999 1.258 61
0.85100001 2.5079999 0.97600001 99
0.89700001 2.9449999 1.066 150
1.102 2.8970001 1.283 8
1.046 3.0050001 1.245 36
0.78500003 2.5039999 0.96799999 116
0.84100002 3.0179999 1.0880001 153
1.048 2.9449999 1.293 150
0.94700003 2.9319999 1.206 20
0.72500002 2.5139999 0.96700001 103
0.76700002 3.0339999 1.09 156
0.98100001 2.96 1.289 150
0.75 2.5150001 1.027 55
0.66299999 2.5190001 0.96399999 114
0.59600002 2.619 0.93800002 22
0.917 2.9849999 1.289 150
0.68699998 2.5079999 1.018 46
0.60299999 2.5280001 0.96399999 97
0.583 2.8789999 1.029 150
0.84899998 2.9949999 1.284 125
0.62599999 2.5079999 1.013 87
0.57099998 2.6659999 1.012 150
0.60900003 3.431 1.225 82
0.78500003 3.0190001 1.286 114
0.58099997 2.573 1.033 19
0.63700002 3.3510001 1.268 88
0.52600002 3.4330001 1.224 85
0.71600002 3.026 1.28 116
0.58200002 2.8770001 1.15 150
0.56999999 3.4330001 1.296 75
0.442 3.4330001 1.224 86
0.57700002 2.6989999 1.135 153
0.61500001 3.431 1.3660001 81
0.48899999 3.431 1.293 81
0.35800001 3.4300001 1.223 95
0.63300002 3.319 1.387 88
0.53399998 3.431 1.3609999 88
0.40700001 3.421 1.288 70
0.27599999 3.4330001 1.225 90
0.57700002 3.4319999 1.428 85
0.456 3.4319999 1.357 86
0.32600001 3.4260001 1.288 80
0.19400001 3.4300001 1.226 91
0.49900001 3.4260001 1.418 81
0.37599999 3.431 1.353 89
0.24699999 3.427 1.288 77
0.111 3.4119999 1.223 102
0.42199999 3.4300001 1.414 89
0.29800001 3.4319999 1.351 85
0.16599999 3.4219999 1.2869999 81
0.029999999 3.424 1.23 85
0.34599999 3.4330001 1.41 87
0.22 3.428 1.347 86
0.086999997 3.4219999 1.288 83
-0.050999999 3.427 1.2359999 88
0.26899999 3.4319999 1.405 92
0.141 3.414 1.34 91
0.0080000004 3.421 1.289 77
-0.132 3.421 1.238 99
0.193 3.4300001 1.4 84
0.064999998 3.428 1.344 79
-0.071000002 3.421 1.2920001 81
-0.214 3.4289999 1.247 86
0.116 3.411 1.3890001 92
-0.012 3.4260001 1.344 81
-0.15000001 3.4219999 1.295 80
-0.29499999 3.4230001 1.251 90
0.041000001 3.4189999 1.39 82
-0.089000002 3.427 1.344 82
-0.229 3.418 1.2970001 83
-0.37799999 3.427 1.2589999 87
-0.034000002 3.4260001 1.39 88
-0.168 3.4289999 1.347 86
-0.30899999 3.4219999 1.303 75
-0.46000001 3.425 1.267 88
-0.111 3.4189999 1.386 82
-0.24600001 3.4289999 1.348 83
-0.389 3.4189999 1.307 76
-0.542 3.425 1.275 88
-0.18700001 3.4219999 1.386 77
-0.32499999 3.431 1.352 85
-0.47099999 3.427 1.316 87
-0.62599999 3.421 1.284 85
-0.264 3.427 1.388 82
-0.403 3.428 1.354 88
-0.551 3.4219999 1.321 76
-0.70899999 3.4219999 1.294 104
-0.34099999 3.424 1.388 79
-0.48199999 3.4260001 1.357 89
-0.63300002 3.4219999 1.329 82
-0.64300001 2.77 1.057 23
-0.417 3.4159999 1.386 80
-0.56099999 3.4230001 1.3609999 83
-0.71499997 3.421 1.336 89
-0.70999998 2.7650001 1.064 98
-0.49700001 3.4289999 1.392 83
-0.64099997 3.4230001 1.3660001 87
-0.64399999 2.7620001 1.086 28
-0.78500003 2.7820001 1.082 94
-0.57300001 3.418 1.39 85
-0.72100002 3.4189999 1.37 82
-0.71399999 2.7690001 1.097 96
-0.85699999 2.786 1.094 104
-0.653 3.4200001 1.395 88
-0.65200001 2.777 1.119 64
-0.78600001 2.7820001 1.1109999 93
-0.68300003 2.0439999 0.81199998 127
-0.73400003 3.4219999 1.399 48
-0.71899998 2.7750001 1.124 93
-0.85500002 2.7809999 1.12 101
-0.72799999 2.0220001 0.81199998 97
-0.66100001 2.7739999 1.138 73
-0.787 2.7780001 1.132 83
-0.68599999 2.0580001 0.83700001 150
-0.76599997 1.9809999 0.80599999 92
-0.72500002 2.7679999 1.14 90
-0.861 2.793 1.146 101
-0.72500002 2.0190001 0.82800001 102
-0.79400003 1.918 0.79000002 81
-0.79500002 2.779 1.15 89
-0.68800002 2.0639999 0.85299999 150
-0.76599997 1.989 0.824 86
-0.83099997 1.883 0.78600001 18
-0.866 2.7869999 1.159 90
-0.72299999 2.013 0.838 111
-0.787 1.9119999 0.801 83
-1.337 2.846 1.206 84
-0.69 2.0539999 0.85900003 150
-0.77100003 2.0020001 0.84100002 93
-0.829 1.886 0.80000001 17
-1.427 2.862 1.2309999 78
-0.72600001 2.0109999 0.84600002 113
-0.78799999 1.915 0.81199998 69
-1.329 2.845 1.221 82
-1.515 2.869 1.253 83
-0.773 1.997 0.84500003 101
-0.829 1.89 0.80900002 150
-1.416 2.8570001 1.243 87
-1.604 2.8729999 1.275 86
-0.78799999 1.905 0.81300002 62
-1.329 2.852 1.233 83
-1.5039999 2.868 1.2640001 81
-1.702 2.888 1.304 85
-0.83700001 1.902 0.81800002 150
-1.413 2.8570001 1.249 74
-1.592 2.872 1.284 82
-1.803 2.904 1.334 82
-1.332 2.848 1.235 84
-1.501 2.869 1.2690001 79
-1.689 2.888 1.3099999 81
-1.903 2.9119999 1.363 77
-1.416 2.8540001 1.249 77
-1.59 2.8759999 1.288 79
-1.785 2.8970001 1.335 78
-2.0139999 2.931 1.398 85
-1.505 2.868 1.268 83
-1.682 2.8840001 1.308 85
-1.886 2.9070001 1.362 70
-2.1259999 2.9449999 1.433 68
-1.592 2.872 1.283 91
-1.779 2.8959999 1.332 82
-1.994 2.925 1.3940001 71
-2.243 2.96 1.471 70
-1.686 2.8829999 1.303 86
-1.883 2.9130001 1.359 80
-2.1070001 2.9419999 1.428 69
-2.362 2.9719999 1.5089999 52
-1.7819999 2.8929999 1.323 82
-1.9859999 2.9230001 1.385 81
-2.2219999 2.9560001 1.461 67
-2.862 3.4349999 1.783 57
-1.887 2.911 1.348 81
-2.098 2.941 1.416 70
-2.3429999 2.974 1.499 62
-2.9890001 3.4260001 1.8200001 58
-1.992 2.924 1.373 85
-2.2179999 2.9630001 1.45 80
-2.8380001 3.437 1.768 56
-3.128 3.4219999 1.862 56
-2.1059999 2.944 1.402 79
-2.339 2.9779999 1.484 78
-2.96 3.4219999 1.7970001 60
-3.276 3.424 1.91 53
-2.2219999 2.9590001 1.431 84
-2.826 3.4330001 1.742 56
-3.102 3.4230001 1.8380001 58
-3.428 3.4219999 1.959 54
-2.3429999 2.9749999 1.462 70
-2.9630001 3.434 1.777 59
-3.253 3.428 1.8839999 58
-3.556 3.3900001 1.994 54
-2.8369999 3.4360001 1.717 57
-3.098 3.428 1.811 58
-3.3970001 3.418 1.925 53
-2.655 2.418 1.4630001 2
-2.97 3.431 1.7460001 60
-3.243 3.427 1.849 58
-3.553 3.415 1.972 56
-2.674 2.326 1.449 39
-3.1040001 3.4230001 1.775 58
-3.3970001 3.4260001 1.891 54
-3.711 3.4070001 2.0190001 46
-2.733 2.27 1.457 32
-3.2609999 3.4330001 1.8150001 58
-3.546 3.4159999 1.9299999 57
-2.681 2.3499999 1.432 53
-2.8510001 2.26 1.497 1
-3.4119999 3.427 1.851 56
-3.717 3.4189999 1.98 53
-2.7349999 2.289 1.4349999 49
-4.066 3.075 2.105 65
-3.5599999 3.415 1.885 57
-2.687 2.359 1.402 50
-2.8499999 2.276 1.47 12
-4.0669999 2.9330001 2.0780001 69
-3.74 3.4219999 1.9349999 54
-2.7420001 2.2980001 1.403 52
-4.0599999 3.0929999 2.0610001 67
-4.0609999 2.7920001 2.049 66
-2.704 2.3610001 1.368 38
-4.0619998 3.2460001 2.039 61
-4.0669999 2.954 2.033 69
-4.0609999 2.658 2.0250001 68
-2.763 2.3010001 1.368 42
-4.0630002 3.096 2.0039999 69
-4.0549998 2.806 1.998 67
-4.04 2.5150001 1.992 67
-2.875 2.283 1.395 13
-4.0669999 2.9530001 1.972 69
-4.053 2.6689999 1.97 68
-4.072 2.4100001 1.987 27
-4.0640001 3.075 1.934 68
-4.0580001 2.8050001 1.936 67
-4.138 2.592 1.9859999 30
-4.1079998 2.3069999 1.9859999 28
-4.0539999 2.921 1.893 70
-4.052 2.665 1.904 66
-4.1890001 2.4920001 1.9859999 12
-4.1279998 2.198 1.977 23
-4.0560002 2.779 1.8609999 69
-4.1609998 2.6010001 1.927 15
-6.0079999 3.392 2.816 22
-4.184 2.108 1.988 14
-4.0599999 2.645 1.831 63
-6.1869998 3.6700001 2.825 24
-6.0910001 3.2579999 2.8239999 27
-4.1859999 1.993 1.973 7
-4.2030001 2.599 1.865 3
-6.2789998 3.53 2.8299999 27
-6.1409998 3.1059999 2.819 28
-6.007 2.697 2.812 19
-6.441 3.776 2.8150001 22
-6.335 3.372 2.8210001 27
-6.2049999 2.9630001 2.822 27
-6.0359998 2.5480001 2.8069999 21
-6.5349998 3.6270001 2.8150001 24
-6.4120002 3.223 2.8210001 26
-6.2579999 2.8150001 2.8210001 26
-6.105 2.418 2.822 22
-6.6149998 3.4690001 2.8110001 23
-6.4840002 3.0739999 2.822 29
-6.303 2.664 2.8180001 26
-4.0440001 1.498 1.859 15
-6.7049999 3.3169999 2.8110001 24
-6.5380001 2.914 2.8169999 28
-6.335 2.5090001 2.8110001 28
-4.0830002 1.41 1.868 24
-6.7729998 3.155 2.8050001 14
-6.5970001 2.7590001 2.8150001 26
-4.0419998 1.495 1.781 19
-6.1399999 1.969 2.7969999 21
-6.8730001 3.0039999 2.8139999 3
-6.6500001 2.602 2.812 22
-4.0949998 1.41 1.793 20
-6.1960001 1.835 2.813 27
-6.928 2.835 2.8050001 6
-4.0409999 1.473 1.6950001 50
-6.4499998 2.0580001 2.8080001 27
-6.2189999 1.693 2.8139999 28
-6.9299998 2.6459999 2.7780001 14
-4.138 1.401 1.722 5
-6.4790001 1.905 2.8069999 27
-6.223 1.5470001 2.8069999 27
-4.0570002 1.439 1.6109999 59
-6.7529998 2.1129999 2.7909999 21
-6.5110002 1.756 2.8080001 27
-6.2389998 1.405 2.809 29
-6.9520001 2.283 2.7360001 29
-6.7810001 1.949 2.7850001 15
-6.5190001 1.599 2.8 28
-6.2210002 1.257 2.796 25
-6.9439998 2.0969999 2.711 39
-6.8130002 1.788 2.7820001 12
-6.54 1.448 2.8 29
-6.2540002 1.12 2.8069999 28
-6.9429998 1.918 2.6900001 41
-6.8600001 1.63 2.7869999 14
-6.5539999 1.296 2.7969999 30
-6.2199998 0.97299999 2.789 28
-6.941 1.7410001 2.671 40
-6.869 1.464 2.7780001 16
-6.5609999 1.1440001 2.793 28
-6.2210002 0.833 2.789 28
-6.9380002 1.5650001 2.6530001 40
-6.8839998 1.301 2.773 21
-6.5770001 0.99299997 2.7950001 28
-6.2210002 0.69499999 2.789 28
-6.9369998 1.392 2.6389999 38
-6.9109998 1.1390001 2.7739999 28
-6.5840001 0.84200001 2.7939999 30
-6.2080002 0.55500001 2.7850001 29
-6.9320002 1.22 2.6240001 42
-6.915 0.97500002 2.7679999 33
-6.579 0.69 2.79 29
-4.0440001 0.27200001 1.816 49
-6.9330001 1.049 2.6140001 42
-6.914 0.81099999 2.7620001 38
-6.5819998 0.54000002 2.79 29
-6.197 0.28 2.7869999 28
-6.9289999 0.88 2.6029999 40
-6.915 0.648 2.7579999 48
-4.039 0.23899999 1.712 62
-6.1750002 0.14399999 2.7820001 26
-6.9359999 0.71100003 2.598 39
-4.04 0.28400001 1.61 48
-6.5669999 0.23999999 2.7869999 27
-6.1599998 0.0080000004 2.783 29
-6.9460001 0.54500002 2.596 38
-6.9130001 0.32300001 2.753 56
-6.5500002 0.092 2.783 29
-6.1389999 -0.124 2.7809999 28
-4.0609999 0.221 1.515 12
-6.921 0.163 2.757 95
-6.5450001 -0.056000002 2.7850001 31
-6.0609999 -0.255 2.7550001 39
-6.9400001 0.20999999 2.5880001 40
-6.9169998 0.001 2.757 150
-6.0630002 -0.18799999 2.586 37
-6.0489998 -0.38699999 2.76 35
-6.9390001 0.044 2.5869999 39
-6.0770001 -0.14 2.4260001 24
-6.0739999 -0.32699999 2.598 37
-4.2470002 -0.36399999 1.9450001 0
-6.941 -0.123 2.589 48
-6.0809999 -0.28200001 2.4319999 40
-6.0679998 -0.46399999 2.6040001 39
-4.1960001 -0.45300001 1.931 2
-6.079 -0.25400001 2.2690001 41
-6.0780001 -0.42500001 2.437 39
-6.0679998 -0.60100001 2.6140001 39
-4.1799998 -0.54299998 1.933 6
-6.072 -0.40099999 2.2709999 41
-6.0700002 -0.56699997 2.441 41
-6.0650001 -0.74000001 2.6240001 37
-4.1690001 -0.634 1.938 13
-6.0700002 -0.54699999 2.276 40
-6.079 -0.71100003 2.4530001 39
-6.355 -0.921 2.7620001 31
-4.1370001 -0.72100002 1.9349999 19
-6.0679998 -0.69400001 2.2809999 39
-6.0489998 -0.85100001 2.451 10
-6.3309999 -1.063 2.766 29
-4.1259999 -0.81199998 1.942 24
-6.947 -0.96600002 2.622 50
-6.7329998 -1.108 2.7420001 21
-6.2880001 -1.2029999 2.7639999 29
-4.0960002 -0.898 1.941 44
-6.9289999 -1.1339999 2.6259999 41
-6.7360001 -1.272 2.7579999 25
-6.2509999 -1.342 2.7650001 25
-3.9890001 -0.96600002 1.904 84
-6.9359999 -1.307 2.642 39
-6.7030001 -1.428 2.7620001 27
-4.0009999 -0.954 1.7819999 74
-3.9909999 -1.058 1.919 89
-6.9510002 -1.4859999 2.664 28
-4.0050001 -0.95099998 1.661 85
-3.987 -1.046 1.789 80
-3.984 -1.149 1.932 87
-3.9890001 -0.954 1.538 92
-3.9909999 -1.0470001 1.6670001 91
-3.9820001 -1.141 1.801 78
-3.9679999 -1.238 1.941 88
-3.997 -1.058 1.552 93
-3.99 -1.147 1.679 93
-3.9779999 -1.238 1.8150001 82
-3.9679999 -1.332 1.9579999 84
-3.993 -1.161 1.563 98
-6.4689999 -2.0239999 2.7460001 37
-3.9890001 -1.34 1.836 82
-3.964 -1.427 1.976 83
-6.8959999 -2.188 2.723 17
-6.4050002 -2.171 2.7449999 33
-3.99 -1.441 1.855 80
-3.9579999 -1.522 1.992 80
-6.848 -2.3570001 2.7290001 14
-4.0029998 -1.462 1.732 6
-3.987 -1.5420001 1.872 80
-3.9690001 -1.625 2.0190001 80
-6.7550001 -2.51 2.7190001 19
-3.9979999 -1.567 1.748 31
-3.9849999 -1.645 1.891 80
-3.9660001 -1.724 2.039 81
-6.6859999 -2.671 2.721 25
-4.0040002 -1.678 1.77 56
-3.9920001 -1.7539999 1.916 81
-3.9690001 -1.8279999 2.0639999 78
-6.664 -2.8510001 2.744 27
-4.0040002 -1.789 1.791 79
-3.9779999 -1.855 1.932 81
-3.974 -1.9349999 2.092 73
-6.5819998 -3.006 2.743 27
-3.994 -1.898 1.809 80
-3.9719999 -1.962 1.9529999 78
-3.997 -2.053 2.1300001 70
-4.0300002 -1.96 1.702 12
-3.9990001 -2.017 1.836 81
-3.9690001 -2.073 1.978 79
-4.0310001 -2.1819999 2.177 65
-3.9890001 -2.0610001 1.7079999 81
-3.9949999 -2.1329999 1.859 77
-3.961 -2.184 2.0009999 76
-4.0440001 -2.302 2.214 63
-3.9879999 -2.1849999 1.734 60
-4.013 -2.2639999 1.895 67
-4.0440001 -2.349 2.073 63
-4.04 -2.4170001 2.243 63
-4.04 -2.3429999 1.784 65
-4.0450001 -2.4089999 1.9400001 65
-4.0359998 -2.467 2.0999999 62
-4.0419998 -2.536 2.277 61
-4.046 -2.4790001 1.8150001 66
-4.0450001 -2.539 1.972 62
-4.0339999 -2.592 2.1329999 63
-4.0450001 -2.661 2.3139999 61
-4.0469999 -2.6170001 1.848 66
-4.0380001 -2.668 2.0020001 64
-4.0380001 -2.724 2.1700001 62
-4.0510001 -2.7909999 2.355 62
-4.0440001 -2.756 1.881 66
-4.0479999 -2.813 2.043 61
-4.0489998 -2.865 2.2130001 72
-4 -2.8840001 2.3640001 49
-3.283 -2.3559999 1.557 35
-3.9449999 -2.8800001 2.029 49
-3.8840001 -2.882 2.1619999 43
-3.8299999 -2.888 2.303 33
-3.1229999 -2.358 1.511 35
-3.072 -2.355 1.6109999 4
-3.7090001 -2.882 2.1029999 45
-3.6600001 -2.885 2.24 31
-3.0420001 -2.4159999 1.503 48
-3.5799999 -2.8789999 1.915 54
-3.543 -2.8840001 2.049 46
-3.4920001 -2.875 2.177 44
-3.033 -2.5309999 1.533 20
-2.9059999 -2.451 1.589 34
-3.063 -2.609 1.808 34
-3.3529999 -2.8840001 2.132 47
-3.0250001 -2.651 1.5650001 18
-2.786 -2.464 1.557 31
-2.7639999 -2.4619999 1.666 56
-3.21 -2.882 2.082 49
-2.951 -2.7149999 1.564 12
-2.6989999 -2.5009999 1.544 16
-2.7179999 -2.5339999 1.675 35
-2.7119999 -2.5420001 1.796 20
-2.872 -2.7750001 1.562 12
-2.6619999 -2.585 1.561 14
-2.5940001 -2.529 1.636 69
-2.615 -2.5580001 1.7690001 45
-2.789 -2.829 1.558 16
-2.599 -2.6440001 1.563 14
-2.4549999 -2.503 1.586 36
-2.5039999 -2.5569999 1.733 91
-2.3599999 -2.5120001 1.3559999 18
-2.3659999 -2.5220001 1.461 17
-2.316 -2.4690001 1.533 23
-2.325 -2.4790001 1.648 80
-2.55 -2.8499999 1.508 14
-2.448 -2.7349999 1.554 6
-2.2379999 -2.4960001 1.521 13
-2.221 -2.471 1.612 73
-2.1489999 -2.5220001 1.311 9
-2.1340001 -2.4979999 1.3940001 12
-2.135 -2.4909999 1.4910001 13
-2.1210001 -2.464 1.579 51
-2.0940001 -2.582 1.319 4
-2.151 -2.641 1.449 5
-2.1559999 -2.631 1.548 6
-2.033 -2.4660001 1.554 29
-1.971 -2.5550001 1.285 4
-2.1619999 -2.7839999 1.503 7
-2.112 -2.6989999 1.562 3
-1.946 -2.4660001 1.528 23
-1.885 -2.5699999 1.273 4
-2.1110001 -2.855 1.518 8
-2.0439999 -2.7360001 1.5599999 2
-1.875 -2.484 1.515 14
-1.839 -2.638 1.288 6
-2.007 -2.8510001 1.494 8
-1.972 -2.767 1.5549999 2
-1.8279999 -2.5320001 1.522 9
-1.7640001 -2.6659999 1.285 5
-1.909 -2.849 1.473 9
-1.905 -2.802 1.553 3
-1.808 -2.622 1.554 3
-1.67 -2.661 1.267 3
-1.7130001 -2.6900001 1.373 13
-1.842 -2.845 1.5549999 7
-1.7539999 -2.6630001 1.556 3
-1.462 -2.46 1.158 25
-1.524 -2.5209999 1.271 11
-1.757 -2.8510001 1.539 8
-1.696 -2.6989999 1.557 3
-1.543 -2.7449999 1.279 4
-1.444 -2.52 1.257 10
-1.4450001 -2.467 1.316 24
-1.4809999 -2.473 1.409 18
-1.306 -2.461 1.135 25
-1.358 -2.5020001 1.235 20
-1.584 -2.849 1.503 12
-1.546 -2.711 1.526 8
-1.289 -2.579 1.179 11
-1.2869999 -2.5090001 1.227 10
-1.3 -2.4660001 1.2869999 23
-1.352 -2.4949999 1.3890001 19
-1.2920001 -2.747 1.2460001 11
-1.288 -2.661 1.289 11
-1.2869999 -2.579 1.3329999 10
-1.284 -2.4949999 1.374 10
-1.263 -2.865 1.29 70
-1.289 -2.8280001 1.359 19
-1.289 -2.7349999 1.401 10
-1.288 -2.641 1.439 10
-1.1799999 -2.8599999 1.28 72
-1.227 -2.868 1.368 67
