# .PCD v0.7 - Point Cloud Data file format
VERSION 0.7
FIELDS x y z intensity
SIZE 4 4 4 4
TYPE F F F F
COUNT 1 1 1 1
WIDTH 1621
HEIGHT 1
VIEWPOINT 0 0 0 1 0 0 0
POINTS 1621
DATA ascii
0.514 3.438 0.64499998 99
0.73100001 2.849 0.46000001 74
0 0 0 50
0.57800001 3.4389999 0.61299998 93
0.43399999 3.4360001 0.64399999 102
0.60699999 2.6199999 0.41600001 84
0.574 3.0639999 0.514 158
0.49599999 3.441 0.61000001 92
0.354 3.437 0.64300001 107
0.56599998 2.733 0.42699999 155
0.56199998 3.441 0.57099998 98
0.41600001 3.4419999 0.60699999 93
0.27399999 3.4360001 0.64200002 110
0.60600001 3.309 0.50999999 151
0.47999999 3.437 0.565 96
0.33500001 3.4460001 0.60500002 93
0.19499999 3.4389999 0.64300001 111
0.54699999 3.444 0.523 102
0.39899999 3.441 0.56099999 100
0.255 3.447 0.60299999 94
0.115 3.438 0.64300001 117
0.46399999 3.4400001 0.51599997 105
0.31799999 3.4430001 0.55699998 93
0.176 3.447 0.60100001 90
0.037 3.4289999 0.64200002 120
0.382 3.4460001 0.50999999 96
0.237 3.4419999 0.55199999 92
0.094999999 3.4430001 0.59799999 86
-0.041000001 3.438 0.64399999 107
0.301 3.447 0.50400001 100
0.156 3.4449999 0.54900002 93
0.016000001 3.4230001 0.59299999 117
-0.12 3.4349999 0.64499998 103
0.219 3.4449999 0.498 94
0.075999998 3.45 0.546 99
-0.063000001 3.45 0.597 95
-0.198 3.434 0.64600003 105
0.13699999 3.451 0.493 98
-0.0040000002 3.427 0.53899997 123
-0.14300001 3.4449999 0.59500003 94
-0.278 3.438 0.648 117
0.056000002 3.45 0.48699999 92
-0.085000001 3.4449999 0.53899997 96
-0.222 3.4460001 0.59500003 98
-0.35600001 3.4300001 0.64899999 116
-0.025 3.4300001 0.479 110
-0.16500001 3.444 0.53600001 98
-0.30199999 3.4419999 0.59399998 96
-0.435 3.434 0.65200001 103
-0.107 3.4489999 0.477 96
-0.24600001 3.447 0.53399998 101
-0.382 3.438 0.59299999 98
-0.51499999 3.4349999 0.65399998 108
-0.18799999 3.4449999 0.47299999 100
-0.32699999 3.441 0.53100002 102
-0.463 3.438 0.59399998 93
-0.59399998 3.428 0.65600002 109
-0.271 3.4460001 0.46900001 102
-0.40799999 3.4449999 0.52999997 101
-0.542 3.431 0.59299999 96
-0.67400002 3.4230001 0.65799999 109
-0.35299999 3.4430001 0.465 96
-0.49000001 3.437 0.528 95
-0.62300003 3.4260001 0.59299999 96
-0.75599998 3.4289999 0.66299999 35
-0.43599999 3.4419999 0.461 94
-0.57099998 3.4319999 0.52600002 98
-0.70700002 3.4360001 0.59600002 95
-0.83499998 3.4200001 0.66500002 102
-0.51899999 3.4389999 0.45699999 104
-0.65499997 3.4389999 0.52600002 97
-0.78899997 3.4349999 0.59799999 150
-0.92000002 3.428 0.671 98
-0.60100001 3.4330001 0.454 97
-0.73900002 3.4349999 0.52499998 150
-0.87199998 3.428 0.59799999 93
-1.0039999 3.4300001 0.676 107
-0.68699998 3.4349999 0.45199999 98
-0.82099998 3.4260001 0.523 99
-0.95499998 3.424 0.60000002 95
-1.0880001 3.4260001 0.68000001 98
-0.62 2.7579999 0.361 9
-0.91000003 3.438 0.52499998 105
-1.0420001 3.431 0.60399997 98
-1.174 3.4260001 0.68599999 88
-0.86000001 3.4330001 0.447 110
-0.99599999 3.4349999 0.52499998 92
-1.128 3.427 0.60600001 87
-1.261 3.427 0.69199997 99
-0.94599998 3.4289999 0.44499999 100
-1.082 3.427 0.52499998 97
-1.216 3.428 0.61000001 87
-1.348 3.424 0.69700003 92
-1.033 3.4230001 0.44299999 108
-1.171 3.4289999 0.52600002 95
-1.304 3.425 0.61299998 87
-1.436 3.4189999 0.70300001 98
-1.126 3.431 0.44299999 92
-1.262 3.4300001 0.528 99
-1.395 3.4219999 0.61699998 93
-1.531 3.427 0.71100003 98
-1.219 3.434 0.442 90
-1.354 3.428 0.52899998 90
-1.487 3.4230001 0.62099999 86
-1.625 3.4289999 0.71899998 95
-1.309 3.424 0.44100001 89
-1.448 3.427 0.53200001 97
-1.582 3.4230001 0.62599999 84
-1.719 3.4260001 0.72600001 79
-1.405 3.4260001 0.44100001 94
-1.541 3.4200001 0.53299999 90
-1.679 3.425 0.63200003 80
-1.822 3.4349999 0.736 96
-1.502 3.4260001 0.44100001 95
-1.64 3.424 0.53600001 91
-1.779 3.428 0.63800001 82
-1.919 3.431 0.745 87
-1.601 3.425 0.442 89
-1.744 3.4319999 0.54100001 85
-1.882 3.4289999 0.64499998 81
-2.0209999 3.4319999 0.75400001 91
-1.704 3.427 0.44299999 87
-1.849 3.4349999 0.54500002 90
-1.987 3.431 0.65200001 73
-2.1259999 3.4300001 0.764 73
-1.8099999 3.431 0.44499999 82
-1.954 3.4349999 0.55000001 76
-2.095 3.4330001 0.65899998 69
-2.227 3.4219999 0.77200001 54
-1.92 3.4360001 0.447 82
-2.0650001 3.4389999 0.55500001 81
-2.2049999 3.434 0.66799998 65
-2.335 3.4159999 0.78200001 42
-2.0339999 3.441 0.44999999 82
-2.1760001 3.437 0.55900002 80
-2.316 3.4330001 0.676 67
-2.217 3.0940001 0.71899998 24
-2.148 3.4419999 0.45300001 83
0 0 0 50
-2.437 3.4389999 0.68599999 68
-2.224 2.9619999 0.699 17
-2.2639999 3.4400001 0.456 75
-2.408 3.4360001 0.57099998 80
-2.5510001 3.431 0.69400001 70
-2.556 3.25 0.77999997 31
-2.385 3.4400001 0.46000001 72
-2.533 3.438 0.57800001 82
-2.6730001 3.4289999 0.704 69
-2.4449999 2.9719999 0.72500002 17
-2.5109999 3.4389999 0.463 72
-2.6530001 3.4289999 0.58399999 72
-2.608 3.1900001 0.66500002 28
-2.9519999 3.4300001 0.852 64
-2.6159999 3.4070001 0.46399999 60
-2.7520001 3.388 0.58499998 38
-2.9360001 3.4289999 0.727 70
-3.092 3.434 0.86900002 64
-2.5769999 3.1930001 0.43900001 50
-2.9260001 3.434 0.602 68
-3.0739999 3.427 0.73900002 66
-3.234 3.4360001 0.88599998 62
-2.5969999 3.0639999 0.42699999 67
-3.072 3.437 0.61199999 63
-3.224 3.4330001 0.75400001 61
-3.375 3.4289999 0.903 64
-2.6070001 2.928 0.41299999 53
0 0 0 50
-3.3729999 3.4319999 0.76800001 58
-3.529 3.4300001 0.92199999 61
-2.701 2.8889999 0.414 49
-3.3380001 3.3989999 0.62699997 55
-3.527 3.427 0.78299999 60
-3.5309999 3.283 0.90200001 68
-2.858 2.9119999 0.42399999 43
-3.325 3.2290001 0.60699999 46
-3.687 3.4230001 0.79900002 58
-3.826 3.402 0.95599997 24
-3.0179999 2.9289999 0.433 39
-3.3369999 3.0910001 0.59299999 54
-3.438 3.0469999 0.727 4
-3.378 2.872 0.82700002 4
-3.7 3.4200001 0.51599997 56
-3.3729999 2.9809999 0.58399999 60
-3.365 2.848 0.69499999 4
-3.3310001 2.707 0.79900002 70
-3.8629999 3.401 0.523 57
-3.3859999 2.852 0.57099998 70
-3.3429999 2.7019999 0.676 51
-3.5039999 2.721 0.824 12
-3.882 3.253 0.51099998 90
0 0 0 50
-3.5139999 2.7090001 0.69599998 15
-3.5940001 2.6659999 0.82999998 7
-4.0409999 3.2219999 0.51800001 70
-3.395 2.5969999 0.54699999 83
-3.3069999 2.431 0.64200002 13
-3.6849999 2.609 0.83499998 9
-4.0580001 3.0780001 0.50800002 67
-3.3889999 2.467 0.53399998 123
-3.296 2.309 0.62699997 18
0 0 0 0
-4.0630002 2.928 0.49599999 69
-3.3970001 2.3529999 0.52399999 93
-3.3429999 2.23 0.62400001 95
0 0 0 0
-4.0599999 2.779 0.48500001 70
-3.619 2.381 0.54699999 78
-3.2839999 2.0840001 0.60299999 49
-3.3329999 2.043 0.71799999 12
-4.0689998 2.641 0.47499999 69
-3.888 2.4300001 0.57700002 150
-3.296 1.987 0.59399998 65
-3.326 1.939 0.70499998 106
-4.0640001 2.5 0.465 66
-3.8889999 2.3039999 0.56599998 106
-3.3169999 1.898 0.588 83
-3.7909999 2.1010001 0.792 4
-4.0650001 2.3659999 0.456 74
-3.855 2.1630001 0.55199999 56
-3.3299999 1.807 0.58099997 93
-3.3469999 1.7589999 0.68900001 62
-4.0640001 2.2349999 0.447 75
-3.388 1.7970001 0.477 0
-3.3729999 1.7309999 0.57999998 48
-3.073 1.53 0.62400001 92
-3.408 1.767 0.368 41
-3.8940001 1.95 0.54000002 150
-3.089 1.497 0.523 98
-3.0599999 1.439 0.61199999 99
-3.082 1.5039999 0.32800001 124
-3.109 1.466 0.42399999 40
-3.098 1.416 0.51700002 86
-3.056 1.3559999 0.60399997 101
-3.273 1.499 0.34200001 93
-4.0560002 1.7970001 0.546 86
-3.1110001 1.336 0.51200002 108
0 0 0 50
-3.2739999 1.405 0.33700001 102
-4.0580001 1.684 0.53799999 65
-3.098 1.248 0.50400001 91
-3.0569999 1.199 0.58899999 106
-3.2839999 1.3150001 0.33399999 107
-3.8640001 1.498 0.50599998 146
-3.096 1.166 0.49700001 82
-3.072 1.127 0.58499998 96
-3.2839999 1.223 0.33000001 114
-3.9430001 1.423 0.50999999 150
-3.1429999 1.103 0.49900001 36
-3.069 1.05 0.57800001 100
-3.2920001 1.136 0.32699999 115
-3.9590001 1.324 0.50599998 150
-3.141 1.022 0.493 32
-3.075 0.977 0.57300001 110
-3.2969999 1.049 0.324 118
-3.9660001 1.223 0.50199997 150
-3.4319999 1.031 0.53299999 44
-3.086 0.90700001 0.56900001 110
-3.3080001 0.96399999 0.32100001 128
-3.977 1.124 0.498 150
-3.7539999 1.035 0.57700002 41
-3.0899999 0.83399999 0.56400001 115
-3.3010001 0.87599999 0.31799999 137
-3.9920001 1.028 0.495 150
-3.786 0.95099998 0.57700002 40
-3.0899999 0.76200002 0.55800003 110
-3.312 0.792 0.31600001 150
-3.997 0.92900002 0.49200001 150
-3.8050001 0.86500001 0.574 42
-3.102 0.69199997 0.55500001 121
-3.3199999 0.70899999 0.315 150
-4.0089998 0.83399999 0.48899999 150
-3.8180001 0.77700001 0.57099998 45
-3.1070001 0.62199998 0.551 118
-3.2980001 0.62099999 0.31099999 102
-4.0240002 0.73799998 0.48800001 150
-3.6459999 0.65600002 0.54100001 31
-3.1010001 0.551 0.546 107
-3.3369999 0.54500002 0.31299999 150
-4.033 0.64200002 0.48500001 132
-3.849 0.602 0.56699997 66
-3.1059999 0.48199999 0.542 130
-3.3340001 0.461 0.31099999 150
0 0 0 50
-3.8570001 0.514 0.56400001 93
-3.1099999 0.412 0.53899997 134
-3.3399999 0.38 0.31 150
-4.04 0.449 0.48100001 150
-3.8659999 0.426 0.56199998 89
-3.105 0.34299999 0.53399998 136
-3.3469999 0.29800001 0.31 150
-4.0440001 0.354 0.479 138
-3.8699999 0.33700001 0.55900002 81
-3.1110001 0.27399999 0.53100002 146
-3.339 0.21600001 0.30899999 150
-4.0440001 0.25799999 0.477 141
-3.7980001 0.245 0.546 27
-3.115 0.205 0.528 150
-3.3410001 0.13500001 0.30899999 150
-4.0419998 0.162 0.47499999 144
-3.8940001 0.162 0.55699998 150
-3.1099999 0.13699999 0.52399999 150
-3.339 0.054000001 0.308 150
-4.0479999 0.068000004 0.47400001 133
-3.8929999 0.072999999 0.55400002 150
-3.109 0.068999998 0.52100003 150
-3.3199999 -0.026000001 0.30700001 150
-4.0440001 -0.027000001 0.47299999 136
-3.901 -0.014 0.55299997 150
-3.1140001 0 0.51800001 150
-3.3199999 -0.106 0.30700001 150
-4.0440001 -0.122 0.472 144
-3.9030001 -0.103 0.551 150
-3.1129999 -0.067000002 0.51599997 145
-3.1029999 -0.175 0.287 148
-3.1040001 -0.16599999 0.36199999 135
-3.096 -0.152 0.43599999 106
0 0 0 50
-4.0510001 -0.32699999 0.377 124
-4.0440001 -0.31299999 0.47099999 112
-4.0440001 -0.29100001 0.56800002 107
-3.198 -0.20999999 0.52499998 27
-4.039 -0.42399999 0.377 106
-4.0510001 -0.40900001 0.47299999 114
-4.0419998 -0.384 0.56599998 107
-4.0430002 -0.35499999 0.66100001 107
-4.0560002 -0.52600002 0.38 110
-4.0479999 -0.50400001 0.47299999 106
-4.0440001 -0.477 0.56599998 94
-4.0510001 -0.44600001 0.65899998 106
-4.0510001 -0.625 0.382 107
-4.0469999 -0.60100001 0.47299999 106
-4.0479999 -0.57099998 0.56599998 98
-4.0489998 -0.53600001 0.65700001 110
-4.0469999 -0.72500002 0.384 113
-4.0510001 -0.699 0.47499999 100
-4.0479999 -0.66500002 0.565 95
-4.046 -0.62699997 0.65399998 108
-4.052 -0.82700002 0.38699999 99
-4.046 -0.79699999 0.47600001 103
-4.0430002 -0.759 0.56400001 93
-4.0500002 -0.72000003 0.653 101
-4.0450001 -0.92799997 0.38999999 105
-4.0440001 -0.89499998 0.477 95
-4.0450001 -0.85600001 0.565 93
-4.0409999 -0.81 0.64999998 92
-3.9890001 -1.018 0.38800001 105
-3.993 -0.98199999 0.47299999 114
-4.0079999 -0.94300002 0.56 87
-4.0479999 -0.90399998 0.64999998 95
-3.99 -1.12 0.39199999 110
-3.987 -1.081 0.47499999 104
-3.9849999 -1.034 0.55699998 104
-3.9879999 -0.98400003 0.639 106
-3.9879999 -1.224 0.396 100
-3.99 -1.182 0.47799999 106
-3.99 -1.133 0.55900002 95
-3.993 -1.079 0.63999999 107
-3.9849999 -1.329 0.40000001 104
-3.997 -1.2869999 0.48199999 110
-3.9920001 -1.232 0.56099999 95
-3.9879999 -1.173 0.63800001 101
-3.9909999 -1.438 0.405 108
-3.984 -1.387 0.484 116
-3.984 -1.329 0.56199998 101
-3.987 -1.2690001 0.63800001 120
-3.9860001 -1.546 0.41 115
-3.987 -1.493 0.48800001 112
-3.987 -1.432 0.56400001 95
-3.99 -1.367 0.63800001 118
-3.9890001 -1.659 0.41600001 104
-3.9920001 -1.602 0.493 110
-3.9820001 -1.533 0.565 97
-3.984 -1.465 0.63700002 110
-3.9890001 -1.772 0.42199999 108
-3.9890001 -1.71 0.49700001 103
-3.9779999 -1.636 0.56699997 98
-3.99 -1.568 0.639 113
-3.9879999 -1.886 0.42899999 103
-3.9820001 -1.818 0.50099999 92
-3.9849999 -1.747 0.57099998 96
-3.9909999 -1.671 0.63999999 107
-3.983 -2.003 0.435 101
-3.9879999 -1.934 0.50700003 94
-3.983 -1.855 0.574 83
-3.99 -1.776 0.64099997 110
-3.993 -2.128 0.44400001 100
-3.9860001 -2.05 0.51200002 95
-3.9809999 -1.965 0.57800001 90
-3.9879999 -1.882 0.64200002 102
-4.0339999 -2.276 0.45699999 79
-3.9809999 -2.1670001 0.51800001 45
-3.983 -2.0799999 0.58200002 88
-3.984 -1.989 0.64300001 95
-4.046 -2.4119999 0.46700001 75
-4.0469999 -2.326 0.53299999 76
-3.984 -2.197 0.58700001 58
-3.9890001 -2.1029999 0.64600003 106
-4.0430002 -2.5420001 0.47499999 71
-4.0500002 -2.4560001 0.54100001 74
-4.04 -2.349 0.60000002 76
-3.983 -2.214 0.64700001 74
-4.0440001 -2.6789999 0.486 70
-4.0440001 -2.582 0.54799998 73
-4.0450001 -2.4779999 0.60600001 74
-4.0539999 -2.372 0.66100001 69
-4.0440001 -2.8210001 0.49599999 71
-4.0539999 -2.723 0.55800003 72
-4.0479999 -2.608 0.61199999 74
-4.046 -2.4909999 0.66299999 69
-3.1919999 -2.3410001 0.40099999 42
-3.3150001 -2.3410001 0.463 39
-4.0380001 -2.733 0.61699998 71
-4.0510001 -2.6199999 0.66799998 71
-3.0480001 -2.3499999 0.391 53
-3.1570001 -2.3410001 0.449 40
-3.302 -2.3469999 0.50999999 40
-4.046 -2.7449999 0.671 71
-3.0079999 -2.434 0.396 28
-3.043 -2.368 0.44 60
-3.145 -2.3440001 0.491 40
-3.2950001 -2.346 0.55000001 41
-2.8699999 -2.437 0.38800001 22
-2.9879999 -2.4389999 0.44 26
-3.0380001 -2.3740001 0.48100001 54
-3.1500001 -2.3499999 0.52899998 40
-2.74 -2.4419999 0.38 25
-2.852 -2.441 0.42899999 24
-2.9779999 -2.4389999 0.47799999 24
-3.033 -2.369 0.514 55
-2.609 -2.438 0.37200001 24
-2.724 -2.4419999 0.41800001 24
-2.8440001 -2.4389999 0.463 24
-2.9909999 -2.4449999 0.51099998 18
-2.4909999 -2.4400001 0.36500001 24
-2.5999999 -2.4430001 0.40799999 25
-2.717 -2.4400001 0.449 23
-2.858 -2.4460001 0.49200001 17
-2.378 -2.4419999 0.359 25
-2.4879999 -2.4489999 0.39899999 25
-2.5969999 -2.4419999 0.43599999 23
-2.73 -2.444 0.47499999 23
-2.2709999 -2.4449999 0.354 25
-2.372 -2.447 0.389 25
-2.484 -2.444 0.42399999 25
-2.6029999 -2.438 0.458 22
-2.1659999 -2.4449999 0.34900001 23
-2.266 -2.448 0.38100001 25
-2.372 -2.4430001 0.412 25
-2.4979999 -2.4460001 0.44400001 25
-2.0840001 -2.467 0.347 25
-2.1659999 -2.451 0.37400001 25
-2.273 -2.45 0.40200001 25
-2.3900001 -2.448 0.43000001 24
-1.989 -2.471 0.34299999 27
-2.086 -2.473 0.37 26
-2.1730001 -2.4519999 0.39300001 25
-2.2839999 -2.447 0.417 25
-1.897 -2.4719999 0.33899999 27
-1.9910001 -2.4749999 0.36300001 26
-2.095 -2.4749999 0.38699999 26
-2.1830001 -2.4460001 0.40400001 25
-1.807 -2.473 0.33500001 27
-1.895 -2.471 0.35699999 28
-2 -2.4760001 0.377 25
-2.1040001 -2.4679999 0.39500001 27
-1.719 -2.473 0.33199999 27
-1.808 -2.474 0.35100001 28
-1.906 -2.473 0.368 25
-2.0139999 -2.473 0.384 26
-1.6339999 -2.471 0.32800001 29
-1.72 -2.471 0.345 28
-1.817 -2.4719999 0.36000001 25
-1.928 -2.4790001 0.375 25
-1.551 -2.47 0.32499999 29
-1.638 -2.473 0.34 29
-1.733 -2.4749999 0.35299999 27
-1.8380001 -2.4779999 0.36399999 27
-1.475 -2.4749999 0.32300001 29
-1.5599999 -2.4790001 0.336 29
-1.647 -2.4690001 0.345 29
-1.753 -2.477 0.354 27
-1.397 -2.474 0.32100001 30
-1.482 -2.4790001 0.33199999 29
-1.5700001 -2.474 0.33899999 29
-1.6720001 -2.48 0.345 27
-1.314 -2.4579999 0.317 30
-1.402 -2.474 0.32699999 28
-1.494 -2.4779999 0.333 29
-1.5880001 -2.473 0.336 27
-1.2539999 -2.484 0.31799999 55
-1.329 -2.4749999 0.32300001 29
-1.418 -2.4790001 0.32699999 30
-1.512 -2.4779999 0.32800001 26
-1.194 -2.507 0.31999999 71
-1.255 -2.474 0.31900001 52
-1.3380001 -2.4690001 0.31900001 29
-1.437 -2.4779999 0.31900001 28
-1.122 -2.507 0.31799999 74
-1.202 -2.5090001 0.31999999 68
-1.2539999 -2.4460001 0.31099999 48
-1.364 -2.4820001 0.31200001 28
-1.053 -2.506 0.317 65
-1.131 -2.5090001 0.317 70
-1.2309999 -2.5409999 0.31799999 50
-1.274 -2.447 0.301 43
-0.98900002 -2.513 0.317 69
-1.087 -2.566 0.32100001 93
-1.181 -2.5869999 0.31799999 150
-1.217 -2.473 0.29699999 65
-0.926 -2.5239999 0.317 70
-1.0319999 -2.602 0.32300001 113
-1.075 -2.506 0.30399999 150
-1.137 -2.451 0.28799999 73
-0.85900003 -2.52 0.31600001 67
-0.95099998 -2.5669999 0.31600001 150
-0.99299997 -2.4690001 0.29499999 96
-1.068 -2.4460001 0.28099999 72
-0.79799998 -2.5320001 0.317 68
0 0 0 50
-0.92199999 -2.4530001 0.289 77
-1.0039999 -2.4489999 0.27500001 73
-0.736 -2.5369999 0.317 68
-0.79299998 -2.487 0.30199999 121
-0.85900003 -2.4560001 0.285 77
-0.93900001 -2.45 0.26899999 72
-0.67500001 -2.5439999 0.31799999 78
-0.727 -2.477 0.29800001 97
-0.79500002 -2.45 0.28099999 79
-0.87599999 -2.451 0.264 78
-0.61299998 -2.543 0.31799999 84
-0.66299999 -2.4660001 0.29499999 90
-0.73199999 -2.447 0.27700001 75
-0.81300002 -2.4489999 0.25799999 81
-0.55000001 -2.54 0.31799999 88
-0.602 -2.461 0.29300001 89
-0.67299998 -2.4519999 0.27399999 74
-0.75199997 -2.4549999 0.25400001 67
-0.49000001 -2.54 0.31799999 78
-0.54100001 -2.4549999 0.29100001 86
-0.61400002 -2.454 0.271 76
-0.69599998 -2.4719999 0.25 60
0 0 0 50
-0.48100001 -2.45 0.289 82
-0.551 -2.444 0.26699999 79
-0.67199999 -2.6159999 0.25999999 21
-0.37 -2.543 0.31999999 99
-0.42300001 -2.4530001 0.289 80
-0.493 -2.444 0.264 72
-0.639 -2.747 0.26800001 23
-0.30599999 -2.5009999 0.315 115
-0.366 -2.4579999 0.28799999 85
-0.43599999 -2.447 0.26199999 77
-0.57599998 -2.7639999 0.26499999 42
-0.255 -2.5669999 0.32499999 21
-0.30899999 -2.457 0.28799999 86
-0.37900001 -2.4519999 0.25999999 77
0 0 0 50
-0.191 -2.506 0.31799999 32
-0.25999999 -2.53 0.296 29
-0.322 -2.4560001 0.25799999 81
-0.44299999 -2.756 0.255 77
-0.134 -2.5079999 0.31900001 32
-0.2 -2.5090001 0.292 28
-0.266 -2.4719999 0.25799999 49
-0.37799999 -2.7509999 0.25099999 50
-0.075999998 -2.5120001 0.32100001 33
-0.142 -2.5039999 0.292 32
-0.213 -2.526 0.26199999 40
-0.27900001 -2.4549999 0.22 53
-0.012 -1.506 0.193 0
-0.083999999 -2.507 0.292 31
-0.154 -2.5039999 0.25799999 34
-0.228 -2.5280001 0.223 54
0.022 -1.5190001 0.19599999 69
-0.028000001 -2.5079999 0.292 28
-0.096000001 -2.5 0.255 61
-0.171 -2.539 0.221 29
0.057 -1.546 0.20100001 23
0.017000001 -1.51 0.176 108
-0.039000001 -2.5120001 0.255 31
-0.112 -2.5409999 0.21799999 31
0.093000002 -1.55 0.20200001 88
0.052000001 -1.535 0.17900001 17
0.011 -1.512 0.152 19
-0.052999999 -2.543 0.215 31
0.13 -1.573 0.206 10
0.088 -1.546 0.18000001 81
0.046 -1.5140001 0.152 20
0.003 -1.5599999 0.13 4
0.168 -1.597 0.211 2
0.126 -1.5700001 0.183 21
0.082000002 -1.539 0.154 16
0.037999999 -1.506 0.124 84
0.20100001 -1.564 0.208 117
0.25999999 -2.5239999 0.296 114
0.12 -1.572 0.156 19
0.075000003 -1.533 0.124 18
0.23 -1.523 0.204 63
0.20999999 -1.6619999 0.19499999 8
0.252 -2.526 0.25099999 117
0.111 -1.548 0.124 89
0.26800001 -1.539 0.208 17
0.23199999 -1.557 0.183 65
0.308 -2.5079999 0.248 150
0.248 -2.595 0.206 6
0 0 0 0
0.26800001 -1.554 0.184 70
0.234 -1.596 0.15700001 100
0.31099999 -2.612 0.205 26
0.141 -0.63800001 0.086999997 12
0 0 0 0
0.26800001 -1.576 0.155 68
0.236 -1.655 0.12800001 122
0.154 -0.62900001 0.086999997 12
0 0 0 0
0 0 0 0
0.266 -1.594 0.122 67
0 0 0 0
0.152 -0.62400001 0.074000001 10
0 0 0 0
0 0 0 0
0.178 -0.61000001 0.086000003 12
0 0 0 0
0.152 -0.62599999 0.061000001 11
0 0 0 0
0 0 0 0
0.177 -0.60699999 0.072999999 10
0 0 0 0
0.149 -0.62199998 0.046 12
0.20900001 -0.611 0.088 12
0 0 0 0
0.176 -0.60399997 0.059 11
0 0 0 0
0 0 0 0
0.206 -0.60100001 0.074000001 11
0 0 0 0
0.177 -0.611 0.045000002 13
0.23800001 -0.60699999 0.089000002 12
0 0 0 0
0.204 -0.59500003 0.057999998 11
0 0 0 0
0 0 0 0
0.237 -0.60100001 0.075000003 11
0 0 0 0
0.204 -0.59799999 0.043000001 12
0.27599999 -0.62099999 0.093999997 9
0 0 0 0
0.237 -0.60000002 0.059 11
0 0 0 0
1.17 -2.4760001 0.38 71
0.28299999 -0.63300002 0.079999998 9
0 0 0 0
0.241 -0.61000001 0.044 13
1.244 -2.4879999 0.38699999 150
1.159 -2.4400001 0.31400001 80
0.28400001 -0.63200003 0.063000001 5
0 0 0 0
1.324 -2.5079999 0.39500001 150
1.2309999 -2.447 0.31799999 86
1.17 -2.4489999 0.24699999 77
0.28799999 -0.639 0.045000002 4
1.432 -2.572 0.41100001 156
1.3049999 -2.4530001 0.322 79
1.238 -2.444 0.248 83
1.342 -2.796 0.2 27
1.521 -2.5940001 0.421 27
1.374 -2.4460001 0.32499999 61
1.309 -2.4430001 0.25 80
1.42 -2.7850001 0.199 31
0 0 0 0
1.4960001 -2.5280001 0.34 27
1.383 -2.444 0.252 76
1.482 -2.7449999 0.19599999 18
0.40900001 -0.63200003 0.105 12
0 0 0 0
0 0 0 0
1.602 -2.806 0.2 75
0 0 0 0
0.40700001 -0.62199998 0.085000001 13
0.40799999 -0.64899999 0.068000004 10
1.518 -2.5190001 0.18000001 55
0.417 -0.58499998 0.101 15
0.42199999 -0.61299998 0.085000001 11
0.41499999 -0.62699997 0.066 10
0 0 0 0
0.42500001 -0.56999999 0.1 15
0 0 0 0
0 0 0 0
0.40900001 -0.611 0.043000001 14
0.43700001 -0.56 0.1 13
0.43000001 -0.56900001 0.082000002 11
0.42500001 -0.58200002 0.063000001 10
0.421 -0.59799999 0.043000001 12
0 0 0 0
0 0 0 0
0 0 0 0
0.42699999 -0.57700002 0.041000001 14
0.46900001 -0.54900002 0.102 12
0.46000001 -0.55400002 0.082000002 12
0.44400001 -0.55199999 0.061000001 12
0.43900001 -0.56400001 0.041000001 13
0 0 0 0
0 0 0 0
0 0 0 0
0.44800001 -0.54799998 0.039999999 15
2.2839999 -2.444 0.47299999 9
0.50700003 -0.55800003 0.086000003 0
0.49399999 -0.55900002 0.064000003 9
0 0 0 0
2.473 -2.533 0.50099999 70
2.3989999 -2.5209999 0.39700001 9
2.3670001 -2.5569999 0.29699999 88
0.49900001 -0.55500001 0.041000001 13
2.5380001 -2.4879999 0.50300002 95
2.4760001 -2.487 0.39899999 69
2.45 -2.5250001 0.29800001 97
2.375 -2.5150001 0.19 12
3.0239999 -2.835 0.58600003 60
2.8989999 -2.7820001 0.456 26
2.6889999 -2.6440001 0.31799999 49
2.8069999 -2.832 0.21699999 66
3.168 -2.8429999 0.602 60
3.0380001 -2.7869999 0.46700001 17
2.6930001 -2.527 0.31 46
2.9430001 -2.832 0.22 62
3.2820001 -2.816 0.611 60
3.1240001 -2.7390001 0.46900001 16
2.829 -2.5339999 0.317 34
3.089 -2.8329999 0.223 58
3.457 -2.8369999 0.63099998 56
3.194 -2.6730001 0.46900001 11
2.9820001 -2.549 0.32600001 35
3.2390001 -2.8310001 0.227 56
3.592 -2.819 0.64399999 54
3.527 -2.8199999 0.50800002 54
3.1229999 -2.5469999 0.333 44
3.4030001 -2.8329999 0.23100001 51
3.783 -2.8369999 0.66600001 51
3.714 -2.835 0.52399999 55
3.256 -2.5309999 0.33899999 46
3.579 -2.8369999 0.236 52
3.961 -2.836 0.685 51
3.892 -2.8340001 0.53799999 53
3.826 -2.832 0.389 51
3.757 -2.8340001 0.241 49
4.151 -2.835 0.70599997 52
4.0840001 -2.8340001 0.55400002 48
4.0149999 -2.8299999 0.40000001 51
3.944 -2.8280001 0.24600001 49
4.3460002 -2.832 0.72799999 50
4.2870002 -2.8329999 0.57099998 48
4.2259998 -2.835 0.412 49
4.1529999 -2.829 0.25299999 46
4.5549998 -2.8269999 0.75099999 49
4.5100002 -2.836 0.58999997 51
4.4380002 -2.829 0.42399999 47
4.3730001 -2.829 0.25999999 46
4.8070002 -2.839 0.77999997 35
4.6880002 -2.803 0.60299999 67
4.5700002 -2.767 0.42899999 31
4.6209998 -2.8340001 0.26899999 34
5.046 -2.8329999 0.80699998 35
4.9879999 -2.832 0.63200003 24
4.836 -2.7750001 0.44499999 18
4.6919999 -2.7260001 0.26699999 56
5.316 -2.8340001 0.838 36
5.1599998 -2.7780001 0.64300001 36
5.1409998 -2.793 0.46599999 55
4.9159999 -2.6989999 0.273 32
5.618 -2.839 0.87300003 38
5.4439998 -2.7709999 0.66799998 39
5.29 -2.7160001 0.47099999 51
5.1269999 -2.655 0.28 38
5.7709999 -2.757 0.884 38
4.2579999 -2.0480001 0.51499999 91
4.085 -1.977 0.35699999 78
3.7880001 -1.848 0.20299999 34
6.0560002 -2.733 0.91600001 34
4.112 -1.865 0.49000001 72
4.0650001 -1.852 0.34999999 77
3.7820001 -1.733 0.199 41
4.2129998 -1.791 0.62900001 73
4.1420002 -1.766 0.48699999 83
4.1609998 -1.78 0.35299999 34
3.7850001 -1.626 0.19599999 51
4.2080002 -1.681 0.62 122
4.1279998 -1.651 0.479 78
4.0900002 -1.638 0.34200001 28
3.773 -1.5140001 0.192 60
4.3270001 -1.62 0.63 52
4.1430001 -1.55 0.47400001 85
4.1290002 -1.543 0.34099999 19
3.7939999 -1.418 0.191 56
8.0810003 -2.825 1.164 17
4.2849998 -1.494 0.48500001 20
4.2989998 -1.493 0.34999999 13
4.0170002 -1.39 0.199 19
8.6590004 -2.8139999 1.232 21
6.428 -2.0769999 0.71799999 31
6.5739999 -2.112 0.52899998 121
0 0 0 0
9.3459997 -2.8110001 1.314 18
8.2650003 -2.4660001 0.91299999 2
8.2130003 -2.427 0.653 71
5.1550002 -1.511 0.249 2
2.869 -0.79500002 0.39899999 0
2.846 -0.77999997 0.31099999 90
2.835 -0.76599997 0.223 91
2.8440001 -0.759 0.13600001 93
2.845 -0.722 0.39199999 88
2.839 -0.70899999 0.30700001 87
2.839 -0.69700003 0.221 93
2.849 -0.68699998 0.13500001 103
2.846 -0.65600002 0.38800001 96
2.8469999 -0.64300001 0.30399999 96
2.846 -0.62900001 0.219 92
2.839 -0.61299998 0.133 96
2.8469999 -0.58999997 0.384 95
2.8469999 -0.57599998 0.301 104
2.8410001 -0.55800003 0.21699999 100
2.8469999 -0.54400003 0.133 99
2.845 -0.52600002 0.38 98
2.8399999 -0.50700003 0.29800001 96
2.8499999 -0.49000001 0.215 97
2.852 -0.472 0.132 99
2.846 -0.461 0.37599999 94
2.8440001 -0.44100001 0.29499999 97
2.8369999 -0.41999999 0.213 97
2.846 -0.40099999 0.131 104
2.8469999 -0.398 0.373 96
2.846 -0.37599999 0.29300001 98
2.8440001 -0.35299999 0.212 96
2.845 -0.331 0.13 109
2.845 -0.333 0.36899999 97
2.8380001 -0.31 0.28999999 110
2.846 -0.28600001 0.211 101
2.8429999 -0.26199999 0.13 122
2.8429999 -0.27000001 0.366 103
2.8429999 -0.24600001 0.28799999 107
2.849 -0.22 0.20900001 106
2.8239999 -0.192 0.12899999 82
2.845 -0.208 0.36300001 119
2.846 -0.18099999 0.28600001 111
2.839 -0.152 0.208 119
2.849 -0.124 0.13 121
2.842 -0.145 0.36000001 110
2.8429999 -0.116 0.28400001 109
2.8440001 -0.086000003 0.207 119
2.809 -0.055 0.12800001 68
2.836 -0.082000002 0.35600001 104
5.4980001 -0.098999999 0.54500002 69
2.8829999 -0.018999999 0.20900001 9
2.8010001 0.012 0.12800001 127
3.1719999 -0.022 0.39500001 1
3.062 0.014 0.301 0
3.1849999 0.052999999 0.23 6
1.732 0.050000001 0.079000004 67
2.904 0.043000001 0.359 9
1.721 0.046 0.168 4
1.707 0.068000004 0.122 70
1.7079999 0.090000004 0.078000002 75
1.732 0.064000003 0.212 47
1.701 0.083999999 0.16500001 91
1.694 0.107 0.121 74
1.701 0.131 0.078000002 82
1.7 0.1 0.207 75
1.704 0.123 0.16500001 18
1.723 0.149 0.123 11
2.799 0.28400001 0.12899999 57
1.701 0.13699999 0.206 84
1.737 0.16599999 0.167 57
3.2279999 0.35699999 0.23100001 9
2.796 0.352 0.13 53
1.7460001 0.18000001 0.20999999 36
6.7490001 0.79900002 0.648 75
12.815 1.726 0.91500002 69
2.796 0.421 0.13 60
12.782 1.609 1.528 74
12.786 1.8150001 1.222 70
2.0239999 0.31999999 0.14399999 65
2.0309999 0.35600001 0.094999999 74
2.0079999 0.29800001 0.23800001 71
2.0009999 0.33000001 0.19 95
2.006 0.366 0.14300001 89
1.9910001 0.398 0.093999997 77
1.984 0.33899999 0.234 78
1.985 0.37400001 0.18799999 84
1.9960001 0.41299999 0.142 80
2.0510001 0.463 0.097999997 73
1.971 0.38100001 0.23100001 79
1.984 0.41999999 0.18700001 25
4.4679999 1.033 0.31999999 51
2.0840001 0.52200001 0.1 58
4.4980001 0.97399998 0.52499998 46
4.5180001 1.0650001 0.426 23
0 0 0 50
2.131 0.58899999 0.104 3
4.4860001 1.076 0.52100003 23
4.3649998 1.135 0.41100001 36
4.428 1.245 0.31799999 46
4.3569999 1.319 0.215 49
4.3759999 1.154 0.505 48
4.4159999 1.257 0.41499999 17
9.2629995 2.8440001 0.667 3
4.3169999 1.4220001 0.21600001 44
5.2969999 1.522 0.60900003 122
9.9519997 3.082 0.93300003 2
4.4860001 1.492 0.324 1
4.3439999 1.548 0.22 65
4.336 1.35 0.49599999 4
4.6669998 1.562 0.43700001 0
4.2810001 1.5369999 0.31099999 51
6.8470001 2.6270001 0.352 61
10.548 3.5450001 1.2029999 5
4.2820001 1.5420001 0.40000001 52
6.869 2.6489999 0.50099999 107
6.8060002 2.802 0.35499999 99
4.2810001 1.545 0.486 49
6.8990002 2.6630001 0.64600003 50
6.8379998 2.822 0.50199997 101
6.1560001 2.7090001 0.32600001 0
6.8779998 2.655 0.778 57
6.8610001 2.8310001 0.64200002 106
6.8340001 3.0090001 0.505 62
4.3909998 2.059 0.237 1
6.8850002 2.836 0.77600002 62
6.8600001 3.0139999 0.64200002 96
5.3870001 2.5250001 0.40099999 43
4.289 2.1389999 0.235 67
4.8829999 2.1400001 0.54799998 16
6.8769999 3.2119999 0.64499998 54
5.1669998 2.572 0.38699999 76
4.0960002 2.1670001 0.229 55
6.888 3.2030001 0.77100003 47
5.1269999 2.54 0.48100001 74
5.1760001 2.7279999 0.39199999 85
4.0240002 2.2539999 0.229 65
5.1500001 2.5369999 0.574 64
5.1069999 2.6760001 0.47999999 85
4.118 2.296 0.31400001 64
4.0539999 2.4000001 0.236 64
5.059 2.6329999 0.56300002 82
5.1149998 2.8329999 0.48199999 88
4.1069999 2.418 0.31600001 57
4.1199999 2.5739999 0.245 61
5.0300002 2.7620001 0.55900002 90
4.3200002 2.523 0.40799999 21
4.1160002 2.5539999 0.31999999 61
3.5090001 2.312 0.213 75
4.3470001 2.5139999 0.48199999 7
4.1350002 2.5420001 0.39199999 78
4.1329999 2.701 0.32600001 68
4.0310001 2.796 0.25099999 55
4.1539998 2.529 0.46000001 50
5.1360002 3.323 0.48899999 58
4.1669998 2.8659999 0.33199999 57
4.1430001 3.023 0.264 20
5.0749998 3.2490001 0.56099999 64
5.1350002 3.4909999 0.49200001 40
4.1830001 3.023 0.338 56
4.164 3.1960001 0.27200001 26
5.1389999 3.4530001 0.56699997 43
4.8839998 3.4879999 0.47 55
4.2010002 3.187 0.34400001 53
3.9070001 3.1489999 0.26199999 8
4.9549999 3.4949999 0.54699999 42
4.6220002 3.4619999 0.447 71
4.349 3.464 0.36199999 66
4.1160002 3.4820001 0.28400001 57
4.6999998 3.4749999 0.51800001 61
4.4310002 3.4820001 0.43200001 64
4.1760001 3.4890001 0.35299999 61
3.9119999 3.474 0.278 55
4.5009999 3.4849999 0.49700001 62
4.2290001 3.483 0.41499999 80
3.9679999 3.477 0.34099999 58
3.7409999 3.484 0.27399999 58
4.2540002 3.451 0.46900001 82
4.033 3.4790001 0.39899999 59
3.79 3.48 0.331 60
3.5639999 3.484 0.26899999 60
4.1009998 3.483 0.45300001 59
3.852 3.4809999 0.384 60
3.6159999 3.4809999 0.322 60
2.273 2.3310001 0.177 96
3.918 3.4820001 0.433 60
3.677 3.48 0.37 60
2.3069999 2.3269999 0.20900001 12
2.197 2.362 0.177 104
3.7420001 3.4790001 0.41499999 60
3.503 3.471 0.35600001 62
2.224 2.3510001 0.206 105
2.1689999 2.4460001 0.18000001 21
0 0 0 50
2.2590001 2.3429999 0.23199999 91
2.1789999 2.414 0.206 106
2.931 3.4690001 0.25299999 62
2.2950001 2.336 0.255 18
2.184 2.372 0.227 100
2.9860001 3.4679999 0.289 68
2.155 2.6760001 0.193 96
2.21 2.3540001 0.24699999 101
2.142 2.438 0.226 32
2.1949999 2.674 0.21799999 103
2.086 2.721 0.19400001 104
2.1670001 2.415 0.243 118
2.23 2.6589999 0.23800001 23
2.1129999 2.701 0.215 115
2.0120001 2.757 0.19499999 3
2.977 3.4749999 0.336 63
2.145 2.6800001 0.233 106
2.039 2.7349999 0.213 150
2.408 3.4719999 0.243 75
2.1849999 2.6689999 0.24699999 101
2.075 2.7190001 0.229 105
2.4660001 3.473 0.266 68
2.2920001 3.477 0.241 76
2.105 2.6960001 0.23999999 116
2.529 3.477 0.28400001 122
2.3440001 3.471 0.25999999 69
2.1730001 3.471 0.23899999 82
2.0409999 2.7390001 0.234 150
2.401 3.467 0.27399999 77
2.223 3.4660001 0.255 73
1.523 2.566 0.176 16
2.4660001 3.473 0.285 81
2.286 3.4690001 0.26699999 81
2.1129999 3.4690001 0.25 74
1.5 2.6700001 0.182 16
2.3559999 3.4820001 0.27500001 81
2.175 3.474 0.259 84
1.4960001 2.5910001 0.184 26
1.478 2.783 0.18799999 53
2.237 3.477 0.264 89
1.523 2.5639999 0.186 13
1.47 2.6889999 0.18799999 52
1.48 2.9530001 0.199 82
2.1240001 3.4719999 0.25299999 94
1.484 2.6340001 0.185 26
1.482 2.8670001 0.197 54
1.6289999 3.451 0.23199999 136
1.497 2.5780001 0.18000001 27
1.477 2.7679999 0.19 52
1.471 3.0190001 0.204 150
1.531 3.451 0.23100001 91
1.484 2.6960001 0.18099999 30
1.4809999 2.9389999 0.19599999 76
1.584 3.4519999 0.23 86
1.4349999 3.4519999 0.23100001 91
1.4809999 2.842 0.184 53
1.568 3.299 0.214 152
1.488 3.45 0.227 89
1.3430001 3.4579999 0.23100001 95
1.474 2.994 0.186 110
1.544 3.45 0.21799999 91
1.393 3.4519999 0.22400001 84
1.132 3.1289999 0.208 151
1.604 3.457 0.207 96
1.45 3.4530001 0.213 94
1.298 3.4449999 0.221 86
1.024 3.056 0.20299999 119
1.508 3.4560001 0.198 95
1.3559999 3.4519999 0.208 93
1.068 3.0480001 0.193 102
1.062 3.4330001 0.229 142
1.4119999 3.451 0.19 88
1.237 3.3759999 0.198 150
1.085 3.346 0.20900001 150
0.97600001 3.437 0.229 114
1.321 3.454 0.183 89
1.038 3.0510001 0.175 87
1.029 3.4430001 0.214 100
0.89300001 3.45 0.23 107
1.1 3.0869999 0.15700001 150
1.062 3.3759999 0.189 150
0.94199997 3.4460001 0.211 99
0.80599999 3.4430001 0.23 103
1.031 3.1210001 0.152 150
0.99599999 3.444 0.18799999 109
0.85699999 3.448 0.20900001 98
0.56199998 2.687 0.17900001 150
1.046 3.431 0.16 142
0.91000003 3.4449999 0.183 100
0.76700002 3.4260001 0.206 150
0.574 3.1029999 0.208 158
0.96399999 3.447 0.154 93
0.824 3.447 0.17900001 100
0.56400001 2.826 0.168 150
0.55500001 3.4460001 0.23199999 106
0.87699997 3.4430001 0.147 100
0.57099998 2.6559999 0.13500001 31
0.60299999 3.4360001 0.20299999 136
0.47299999 3.447 0.233 99
0.79500002 3.451 0.141 100
0.56599998 2.9719999 0.147 150
0.52399999 3.4549999 0.20299999 89
0.39199999 3.4519999 0.234 104
0.56300002 2.7320001 0.107 158
0.57499999 3.451 0.167 92
0.44100001 3.4549999 0.20100001 101
0.31099999 3.4549999 0.235 111
0.56300002 3.098 0.116 163
0.49399999 3.4560001 0.164 93
0.359 3.448 0.2 94
0.229 3.447 0.235 113
0.546 3.4560001 0.124 93
0.412 3.46 0.161 94
0.27900001 3.4519999 0.199 98
0.149 3.451 0.237 113
0.46200001 3.4530001 0.118 93
0.33000001 3.4519999 0.15700001 99
0.198 3.4530001 0.198 103
0.07 3.451 0.23800001 115
0.38 3.448 0.112 97
0.249 3.4560001 0.154 94
0.118 3.45 0.19599999 112
-0.0099999998 3.4460001 0.23899999 121
0.30000001 3.4530001 0.107 110
0.167 3.45 0.15000001 102
0.037999999 3.444 0.19499999 122
-0.089000002 3.441 0.23999999 150
0.21799999 3.4549999 0.101 106
0.086999997 3.451 0.147 111
-0.041999999 3.4430001 0.19400001 115
-0.169 3.4489999 0.242 118
0.13699999 3.4460001 0.096000001 94
0.0060000001 3.45 0.14399999 115
-0.121 3.427 0.193 149
-0.249 3.444 0.244 109
0.056000002 3.4530001 0.090999998 120
-0.072999999 3.4519999 0.141 113
-0.20200001 3.4430001 0.193 109
-0.33000001 3.4519999 0.24600001 108
-0.024 3.4489999 0.086000003 110
-0.153 3.4300001 0.138 148
-0.28299999 3.447 0.193 104
-0.41 3.447 0.248 114
-0.105 3.4430001 0.081 115
-0.235 3.45 0.13600001 109
-0.36300001 3.448 0.193 99
-0.49000001 3.441 0.249 110
-0.185 3.418 0.075000003 150
-0.31600001 3.4460001 0.133 102
-0.44499999 3.447 0.192 104
-0.57099998 3.4419999 0.25099999 107
-0.26800001 3.451 0.071000002 109
-0.398 3.4489999 0.13 100
-0.52600002 3.448 0.192 87
-0.65200001 3.4389999 0.25299999 118
-0.34900001 3.4489999 0.067000002 103
-0.47999999 3.454 0.12800001 95
-0.60900003 3.4460001 0.192 97
-0.73299998 3.4319999 0.255 110
-0.433 3.4549999 0.061999999 99
-0.56199998 3.4489999 0.126 97
-0.69 3.441 0.192 91
-0.81800002 3.438 0.25799999 104
-0.51499999 3.447 0.057 93
-0.64399999 3.4400001 0.123 93
-0.62 2.757 0.154 15
-0.898 3.427 0.25999999 107
-0.59799999 3.4430001 0.052999999 98
-0.727 3.4360001 0.121 113
-0.85600001 3.431 0.191 94
-0.98299998 3.4300001 0.26300001 105
-0.68199998 3.441 0.048 100
-0.81199998 3.4389999 0.119 123
-0.94 3.4289999 0.192 91
-1.071 3.434 0.266 95
-0.61799997 2.7720001 0.035 18
-0.89600003 3.4330001 0.116 96
-1.028 3.4349999 0.192 88
-1.156 3.431 0.26899999 92
-0.85100001 3.4319999 0.039000001 95
-0.98400003 3.438 0.115 91
-1.113 3.4300001 0.192 100
-1.245 3.4300001 0.27200001 92
-0.93900001 3.4360001 0.035 102
-1.071 3.4319999 0.112 97
-1.201 3.4289999 0.193 85
-1.3329999 3.4300001 0.27500001 92
-1.028 3.437 0.030999999 102
-1.16 3.434 0.111 90
-1.293 3.4330001 0.19400001 83
-1.424 3.4300001 0.27900001 90
-1.118 3.437 0.026000001 92
-1.251 3.434 0.109 97
-1.383 3.4300001 0.19499999 82
-1.513 3.421 0.28099999 88
-1.209 3.437 0.022 89
-1.342 3.431 0.107 88
-1.473 3.4230001 0.19499999 86
-1.6109999 3.4300001 0.28600001 96
-1.3 3.431 0.017999999 84
-1.4349999 3.4289999 0.105 89
-1.569 3.424 0.19599999 81
-1.706 3.427 0.28999999 91
-1.393 3.4289999 0.014 87
-1.534 3.4349999 0.104 90
-1.664 3.421 0.197 85
-1.804 3.425 0.29300001 86
-1.492 3.434 0.0089999996 90
-1.63 3.4319999 0.102 91
-1.765 3.4230001 0.198 82
-1.915 3.4449999 0.30000001 93
-1.5880001 3.428 0.0049999999 96
-1.729 3.4289999 0.1 81
-1.87 3.431 0.2 76
-2.0179999 3.4419999 0.30399999 86
-1.6900001 3.431 0.001 84
-1.835 3.4360001 0.098999999 76
-1.977 3.434 0.20200001 70
-2.1210001 3.438 0.308 84
-1.796 3.4360001 -0.0020000001 88
-1.942 3.441 0.097999997 72
-2.0829999 3.434 0.204 67
-2.233 3.4430001 0.31400001 80
-1.906 3.4419999 -0.0070000002 83
-2.049 3.438 0.096000001 67
-2.1930001 3.434 0.206 70
-2.346 3.4419999 0.31900001 77
-2.0179999 3.447 -0.011 79
-2.1630001 3.4419999 0.094999999 73
-2.3069999 3.434 0.207 65
-2.457 3.4360001 0.324 75
-2.1300001 3.4449999 -0.015 73
-2.28 3.4449999 0.093999997 70
-2.428 3.4400001 0.20999999 66
-2.5769999 3.437 0.329 79
-2.227 3.4170001 -0.018999999 49
-2.3959999 3.441 0.093000002 71
-2.546 3.437 0.212 69
-2.5780001 3.2809999 0.31999999 51
-2.3640001 3.4419999 -0.024 67
-2.52 3.4430001 0.092 72
-2.5799999 3.3180001 0.207 62
-2.4619999 2.993 0.29800001 18
-2.4860001 3.4400001 -0.028000001 65
-2.5899999 3.369 0.089000002 64
-2.549 3.1270001 0.198 45
-2.605 3.023 0.30700001 110
-2.5769999 3.392 -0.032000002 46
-2.5810001 3.198 0.083999999 51
-2.6029999 3.0469999 0.19499999 93
-2.6210001 2.908 0.301 92
-2.556 3.2 -0.035 42
-2.602 3.073 0.079000004 64
-2.6040001 2.9100001 0.189 71
-2.7320001 2.895 0.30599999 55
-2.572 3.066 -0.037999999 45
-2.6170001 2.9460001 0.075000003 69
-2.7079999 2.8900001 0.191 44
-2.8740001 2.9130001 0.31400001 52
-2.582 2.931 -0.039999999 46
-2.694 2.8929999 0.072999999 55
-2.8610001 2.915 0.19499999 45
-3.0309999 2.937 0.324 51
-2.668 2.885 -0.043000001 43
-2.848 2.9170001 0.072999999 54
-3.01 2.9289999 0.199 43
-3.7060001 3.4319999 0.38800001 60
-2.8210001 2.9059999 -0.048 44
-3.0009999 2.9319999 0.072999999 50
-3.678 3.4159999 0.237 62
-3.8710001 3.427 0.396 59
-2.9890001 2.9330001 -0.052999999 49
-3.6270001 3.3800001 0.083999999 60
-3.8670001 3.4300001 0.242 57
-4.0079999 3.3900001 0.40200001 64
-3.2520001 3.0409999 -0.059999999 20
-3.8610001 3.4300001 0.085000001 53
-4.0079999 3.3940001 0.245 65
-4.0739999 3.2920001 0.40099999 65
-3.2160001 2.865 -0.059999999 20
-3.1429999 2.6630001 0.064999998 36
-4.0510001 3.2720001 0.241 67
-4.0749998 3.1459999 0.39300001 66
-3.0880001 2.619 -0.059999999 25
-3.1849999 2.573 0.063000001 55
-4.0560002 3.1259999 0.235 58
-4.0599999 2.99 0.384 70
-3.131 2.5280001 -0.061999999 31
-3.2980001 2.5369999 0.061999999 49
-3.881 2.8510001 0.22 37
-4.073 2.862 0.37900001 71
-3.2490001 2.4949999 -0.066 56
-3.6370001 2.6630001 0.064999998 41
-4.0619998 2.842 0.22400001 68
-4.072 2.7260001 0.37200001 71
-3.2780001 2.3940001 -0.068000004 58
-3.684 2.5650001 0.063000001 68
-4.0780001 2.7160001 0.22 73
-4.0700002 2.595 0.36500001 71
-3.3080001 2.2939999 -0.068999998 123
-3.6930001 2.4449999 0.059999999 69
-4.0760002 2.5810001 0.215 76
-4.0679998 2.4690001 0.359 69
-3.3210001 2.1860001 -0.071000002 98
-3.6949999 2.323 0.057 74
-3.448 2.0739999 0.178 7
-4.072 2.3469999 0.35299999 69
-3.6229999 2.2609999 -0.078000002 60
-3.431 2.0450001 0.050000001 64
-3.46 1.974 0.175 13
-4.0689998 2.2260001 0.347 65
-3.425 2.023 -0.075000003 123
-3.49 1.97 0.048999999 37
-4.0640001 2.1960001 0.20100001 73
-3.4059999 1.766 0.28600001 43
-3.51 1.96 -0.077 17
0 0 0 0
-4.0549998 2.073 0.197 77
-3.0899999 1.515 0.25600001 150
-3.375 1.779 -0.075000003 94
-4.0440001 2.0369999 0.052000001 58
-3.086 1.488 0.147 132
-3.8759999 1.795 0.31600001 122
-3.085 1.531 -0.068999998 150
-3.105 1.473 0.037999999 59
-3.8900001 1.768 0.18099999 69
-4.0560002 1.7690001 0.32600001 85
-3.1570001 1.472 -0.071000002 2
-4.0640001 1.811 0.048 80
-4.0580001 1.733 0.186 74
-4.0250001 1.65 0.31900001 91
-4.0539999 1.772 -0.092 33
-4.052 1.692 0.045000002 150
-4.0089998 1.604 0.18000001 150
-3.832 1.472 0.29899999 150
-4.0479999 1.653 -0.092 36
-3.819 1.49 0.041000001 150
-4.0580001 1.517 0.17900001 90
-4.0229998 1.443 0.31 144
-3.927 1.493 -0.090000004 38
-4.0580001 1.473 0.041999999 150
-4.052 1.41 0.176 78
-4.0409999 1.349 0.30700001 150
-4.052 1.429 -0.093000002 38
-4.052 1.364 0.039999999 150
-4.0609999 1.308 0.17299999 79
-4.0409999 1.249 0.303 150
-4.046 1.317 -0.093000002 40
-4.046 1.256 0.037999999 150
-4.052 1.204 0.17 85
-4.0450001 1.152 0.29899999 146
-4.0479999 1.209 -0.093000002 41
-4.0440001 1.151 0.037 150
-4.052 1.104 0.168 88
-4.0469999 1.057 0.296 125
-4.0450001 1.102 -0.093000002 45
-4.0339999 1.046 0.035 150
-4.0580001 1.006 0.16500001 91
-4.0570002 0.96399999 0.29300001 122
-4.0310001 0.99400002 -0.093000002 48
-4.0349998 0.94499999 0.034000002 150
-4.053 0.90600002 0.163 95
-4.0479999 0.866 0.289 117
-4.0320001 0.89099997 -0.093000002 51
-4.033 0.84500003 0.033 150
-4.0539999 0.80900002 0.16 96
-4.0549998 0.77399999 0.28600001 118
-4.0250001 0.78600001 -0.093000002 52
-4.026 0.74400002 0.032000002 150
-4.0570002 0.71399999 0.15800001 110
-4.0549998 0.68099999 0.28200001 110
-4.0219998 0.685 -0.092 55
-4.0279999 0.64600003 0.030999999 150
-4.046 0.616 0.155 98
-4.0570002 0.58899999 0.27900001 114
-4.026 0.58499998 -0.092 56
-4.0279999 0.55000001 0.029999999 150
-4.0339999 0.51999998 0.153 110
-4.0549998 0.49599999 0.27599999 117
-3.257 0.39300001 -0.074000001 38
-3.2449999 0.36500001 0.023 38
-3.243 0.34299999 0.121 24
-4.0539999 0.40599999 0.273 117
-3.2550001 0.31200001 -0.074000001 44
-3.267 0.289 0.023 39
-3.2690001 0.27000001 0.121 16
-4.0510001 0.315 0.26899999 132
0 0 0 0
0 0 0 0
-4.0500002 0.241 0.147 114
-4.053 0.22499999 0.26699999 125
-3.1300001 0.147 -0.071000002 1
-3.1210001 0.12800001 0.02 1
-4.0450001 0.148 0.145 102
-4.0549998 0.134 0.264 132
0 0 0 0
0 0 0 0
-4.0409999 0.055 0.14300001 113
-4.0500002 0.044 0.25999999 125
-3.7179999 -0.0049999999 -0.082999997 20
-3.753 -0.023 0.024 16
-4.0469999 -0.035999998 0.142 136
-4.0580001 -0.045000002 0.25799999 142
-3.628 -0.093000002 -0.079999998 155
-3.72 -0.11 0.023 150
-4.0419998 -0.12899999 0.14 150
-4.007 -0.134 0.252 150
-3.1029999 -0.155 -0.068000004 150
-3.112 -0.16500001 0.018999999 150
-3.0999999 -0.17 0.106 150
-3.1029999 -0.17200001 0.193 150
-4.0560002 -0.30199999 -0.088 90
-4.0489998 -0.31099999 0.025 130
-4.0419998 -0.315 0.13699999 123
-4.0510001 -0.31600001 0.25 132
-4.0539999 -0.40099999 -0.086999997 87
-4.0450001 -0.40700001 0.024 111
-4.046 -0.40799999 0.13600001 118
-4.0469999 -0.40599999 0.24699999 122
-4.0510001 -0.5 -0.086000003 83
-4.0500002 -0.50400001 0.024 109
-4.0510001 -0.50300002 0.13500001 106
-4.0450001 -0.49700001 0.244 114
-4.0489998 -0.60000002 -0.085000001 84
-4.0440001 -0.60100001 0.024 110
-4.0440001 -0.59600002 0.133 112
-4.0450001 -0.58899999 0.241 115
-4.0489998 -0.70099998 -0.085000001 82
-4.0450001 -0.699 0.024 97
-4.0380001 -0.69099998 0.132 108
-4.046 -0.68099999 0.23899999 114
-4.0510001 -0.80299997 -0.083999999 90
-4.0500002 -0.79799998 0.024 99
-4.0419998 -0.787 0.131 99
-4.0409999 -0.77200001 0.236 109
-4.052 -0.90499997 -0.082000002 86
-4.0479999 -0.898 0.024 98
-4.0419998 -0.88300002 0.12899999 100
-4.0479999 -0.86799997 0.234 108
-3.9960001 -0.995 -0.079999998 113
-3.9849999 -0.98299998 0.023 102
-3.983 -0.96700001 0.126 113
-3.9920001 -0.949 0.228 112
-3.9909999 -1.097 -0.079000004 112
-3.99 -1.084 0.024 114
-3.9849999 -1.064 0.125 120
-3.9849999 -1.0420001 0.226 114
-3.994 -1.202 -0.078000002 102
-3.9879999 -1.1849999 0.024 97
-3.9860001 -1.1619999 0.125 106
-3.993 -1.1390001 0.22400001 112
-3.9909999 -1.308 -0.075999998 104
-3.987 -1.288 0.024 103
-3.9890001 -1.2640001 0.123 104
-3.983 -1.233 0.221 105
-3.9809999 -1.4119999 -0.075000003 98
-3.9849999 -1.392 0.024 93
-3.9879999 -1.364 0.122 98
-3.9849999 -1.331 0.219 107
-3.99 -1.525 -0.072999999 105
-3.9890001 -1.499 0.025 99
-3.9779999 -1.4630001 0.121 99
-3.99 -1.433 0.21699999 114
-3.987 -1.6339999 -0.071999997 101
-3.98 -1.604 0.025 100
-3.9809999 -1.568 0.121 93
-3.987 -1.5319999 0.214 126
-3.9849999 -1.748 -0.07 105
-3.987 -1.716 0.026000001 92
-3.98 -1.675 0.12 94
-3.9820001 -1.633 0.212 120
-3.9849999 -1.863 -0.068000004 98
-3.983 -1.827 0.026000001 96
-3.9760001 -1.7819999 0.119 90
-3.983 -1.739 0.20900001 111
-3.987 -1.983 -0.066 96
-3.9820001 -1.9400001 0.027000001 91
-3.9809999 -1.895 0.118 88
-3.983 -1.846 0.207 114
-3.983 -2.102 -0.064000003 94
-3.98 -2.0569999 0.027000001 89
-3.9749999 -2.0039999 0.117 81
-3.9809999 -1.954 0.205 98
-3.9920001 -2.2309999 -0.061999999 83
-3.98 -2.1760001 0.028000001 93
-3.9779999 -2.1210001 0.117 79
-3.984 -2.066 0.20299999 97
-4.0469999 -2.3900001 -0.061000001 74
-4.046 -2.3380001 0.029999999 74
-4.0159998 -2.2609999 0.117 79
-3.9820001 -2.1800001 0.2 105
-4.0380001 -2.5190001 -0.059 75
-4.0489998 -2.467 0.030999999 76
-4.0409999 -2.3989999 0.117 75
-4.033 -2.326 0.20100001 76
-4.046 -2.6600001 -0.056000002 67
-4.0440001 -2.5969999 0.032000002 72
-4.0370002 -2.523 0.117 68
-4.0430002 -2.4549999 0.199 70
-4.0349998 -2.7950001 -0.054000001 60
-4.0450001 -2.734 0.033 71
-4.0450001 -2.6589999 0.116 72
-4.0430002 -2.579 0.19599999 70
-3.2030001 -2.3340001 -0.039999999 40
-3.296 -2.3429999 0.027000001 41
-4.0380001 -2.789 0.116 65
-4.0409999 -2.7079999 0.19400001 70
-3.0539999 -2.339 -0.035999998 53
-3.142 -2.345 0.027000001 40
-3.2249999 -2.339 0.092 39
-3.3299999 -2.3410001 0.15800001 50
-3.0109999 -2.4219999 -0.034000002 35
-3.0350001 -2.3770001 0.028000001 56
-3.069 -2.335 0.086999997 42
-3.181 -2.3440001 0.149 41
-2.8759999 -2.4300001 -0.029999999 24
-2.96 -2.4319999 0.028000001 24
-3.0339999 -2.4189999 0.086000003 55
-3.0339999 -2.3429999 0.14 57
-2.7390001 -2.428 -0.026000001 25
-2.823 -2.434 0.028000001 24
-2.9119999 -2.4330001 0.082000002 22
-3.0120001 -2.4349999 0.13699999 32
-2.6159999 -2.434 -0.023 24
-2.694 -2.434 0.028000001 25
-2.7839999 -2.437 0.078000002 23
-2.881 -2.438 0.12899999 23
-2.493 -2.4319999 -0.018999999 24
-2.5780001 -2.4419999 0.028000001 24
-2.655 -2.4330001 0.075000003 23
-2.747 -2.434 0.121 24
-2.3789999 -2.4349999 -0.016000001 25
-2.4579999 -2.4389999 0.028000001 24
-2.5409999 -2.4389999 0.071000002 24
-2.6329999 -2.4400001 0.114 24
-2.2720001 -2.4389999 -0.013 25
-2.342 -2.4349999 0.028000001 25
-2.424 -2.4360001 0.068000004 25
-2.523 -2.4449999 0.108 25
-2.1689999 -2.441 -0.0099999998 25
-2.243 -2.4449999 0.028000001 25
-2.3199999 -2.441 0.064999998 25
-2.411 -2.4449999 0.101 25
-2.0869999 -2.4649999 -0.0070000002 25
-2.1400001 -2.444 0.028000001 26
-2.2179999 -2.4430001 0.061999999 24
-2.299 -2.4389999 0.094999999 25
-1.987 -2.464 -0.0040000002 25
-2.0639999 -2.471 0.028000001 26
-2.1289999 -2.4560001 0.059999999 27
-2.198 -2.4400001 0.089000002 25
-1.893 -2.464 -0.001 25
-1.972 -2.477 0.028000001 25
-2.0420001 -2.467 0.057 26
-2.1229999 -2.4660001 0.085000001 27
-1.809 -2.473 0.001 26
-1.875 -2.471 0.028999999 24
-1.95 -2.47 0.054000001 26
-2.0320001 -2.471 0.079000004 26
-1.7180001 -2.47 0.003 26
-1.7819999 -2.4649999 0.028999999 27
-1.863 -2.4749999 0.052000001 26
-1.939 -2.4690001 0.074000001 26
-1.632 -2.47 0.0060000001 28
-1.702 -2.474 0.028999999 28
-1.774 -2.471 0.050000001 25
-1.848 -2.4660001 0.068999998 26
-1.549 -2.4679999 0.0080000004 28
-1.614 -2.4679999 0.028999999 28
-1.682 -2.4619999 0.046999998 27
-1.772 -2.4790001 0.064999998 27
-1.47 -2.47 0.011 28
-1.536 -2.4719999 0.028999999 28
-1.608 -2.473 0.045000002 29
-1.686 -2.4749999 0.059999999 26
-1.391 -2.467 0.013 29
-1.459 -2.474 0.029999999 29
-1.529 -2.474 0.043000001 29
-1.602 -2.471 0.055 26
-1.3049999 -2.447 0.016000001 30
-1.386 -2.4809999 0.029999999 28
-1.451 -2.4719999 0.041999999 28
-1.529 -2.4779999 0.050999999 26
-1.2589999 -2.5020001 0.017999999 36
-1.293 -2.4460001 0.029999999 31
-1.378 -2.477 0.039999999 29
-1.45 -2.474 0.046999998 29
-1.135 -2.3929999 0.02 86
-1.248 -2.5009999 0.030999999 44
-1.2819999 -2.4349999 0.037 30
-1.3710001 -2.467 0.043000001 29
-1.067 -2.3929999 0.022 96
-1.128 -2.3970001 0.029999999 86
-1.2359999 -2.4849999 0.035999998 61
-1.285 -2.4419999 0.037999999 35
-1.003 -2.402 0.025 90
-1.058 -2.3900001 0.029999999 86
-1.122 -2.3900001 0.033 85
-1.247 -2.5050001 0.035999998 47
-0.93699998 -2.398 0.027000001 88
-0.99800003 -2.404 0.030999999 86
-1.059 -2.3989999 0.032000002 94
-1.124 -2.3940001 0.029999999 94
-0.87599999 -2.4070001 0.028999999 95
-0.93199998 -2.4030001 0.030999999 87
-0.99199998 -2.395 0.029999999 91
-1.058 -2.3940001 0.027000001 97
-0.81300002 -2.408 0.030999999 98
-0.87 -2.404 0.032000002 90
-0.93000001 -2.3989999 0.028000001 95
-0.995 -2.3989999 0.023 91
-0.75 -2.404 0.033 94
-0.80800003 -2.408 0.032000002 95
-0.86699998 -2.398 0.027000001 88
-0.93099999 -2.3970001 0.02 97
-0.736 -2.5699999 0.037999999 20
-0.74599999 -2.4059999 0.032000002 95
0 0 0 50
-0.87099999 -2.402 0.017000001 98
-0.73799998 -2.8239999 0.045000002 60
-0.73100001 -2.566 0.035 19
-0.74800003 -2.4130001 0.024 98
-0.81 -2.405 0.013 97
-0.67000002 -2.8329999 0.046999998 72
-0.736 -2.8299999 0.039000001 59
-0.73299998 -2.5699999 0.025 20
0 0 0 50
