# .PCD v0.7 - Point Cloud Data file format
VERSION 0.7
FIELDS x y z intensity
SIZE 4 4 4 4
TYPE F F F F
COUNT 1 1 1 1
WIDTH 1673
HEIGHT 1
VIEWPOINT 0 0 0 1 0 0 0
POINTS 1673
DATA ascii
0.51899999 0.477 0.61299998 9
0.49200001 0.498 0.58200002 13
0.57700002 0.44499999 0.699 9
0.53899997 0.46599999 0.64999998 14
0.50400001 0.484 0.60799998 9
0.477 0.50599998 0.57800001 15
0.53799999 0.435 0.66100001 8
0.52700001 0.477 0.64700001 9
0.49700001 0.5 0.61299998 9
0.46700001 0.51899999 0.58200002 10
0.52999997 0.449 0.66100001 9
0.51099998 0.484 0.63999999 9
0.484 0.50999999 0.611 9
0.458 0.53299999 0.58499998 9
0.53600001 0.47600001 0.68000001 11
0.49700001 0.493 0.63499999 9
0.47299999 0.52100003 0.611 9
0.45199999 0.55000001 0.59399998 10
0.51599997 0.479 0.66600001 10
0.49399999 0.51300001 0.64399999 10
0.461 0.53100002 0.61000001 9
0.44100001 0.56300002 0.597 9
0.49200001 0.47799999 0.64600003 9
0.479 0.51999998 0.639 9
0.45199999 0.546 0.61500001 8
0.43399999 0.58099997 0.60600001 9
0.47099999 0.479 0.63099998 9
0.44400001 0.50400001 0.60500002 6
0.442 0.55900002 0.61900002 8
0.43000001 0.60299999 0.62 8
0.45699999 0.48699999 0.62400001 9
0.456 0.54299998 0.63700002 7
0.43599999 0.57800001 0.62800002 8
0.426 0.62699997 0.63499999 4
0.44600001 0.49700001 0.62199998 7
0.44400001 0.55299997 0.63599998 8
0.43399999 0.602 0.64300001 8
0.44299999 0.685 0.68400002 1
0.447 0.52200001 0.63800001 7
0.43599999 0.56999999 0.64200002 8
0.42500001 0.62 0.65100002 4
1.637 2.6600001 2.622 9
0.447 0.54699999 0.65200001 9
0.433 0.59299999 0.65600002 8
0.44 0.67299998 0.69599998 1
1.679 2.8699999 2.7939999 81
0.43700001 0.56099999 0.65499997 10
0.41999999 0.60399997 0.65600002 5
1.7 2.7349999 2.786 10
1.613 2.905 2.796 82
0.43200001 0.58099997 0.66399997 10
0.43599999 0.65799999 0.70200002 1
1.6440001 2.7809999 2.7939999 73
1.545 2.9360001 2.7950001 83
0.426 0.60100001 0.67299998 9
1.684 2.671 2.802 7
1.581 2.8199999 2.7939999 69
1.477 2.9660001 2.7950001 81
0.43200001 0.64099997 0.704 3
1.622 2.7079999 2.7950001 85
1.518 2.8540001 2.793 68
1.4119999 3 2.8 80
1.665 2.6010001 2.8010001 17
1.563 2.75 2.7950001 81
1.455 2.8929999 2.7969999 70
1.342 3.026 2.799 81
1.612 2.651 2.802 76
1.505 2.7939999 2.7980001 85
1.388 2.9219999 2.7920001 69
1.272 3.0510001 2.7980001 91
1.557 2.701 2.8050001 75
1.442 2.832 2.796 81
1.324 2.9560001 2.7950001 69
1.204 3.0810001 2.8039999 88
1.4960001 2.7420001 2.799 79
1.3789999 2.8670001 2.793 82
1.2589999 2.9920001 2.799 72
1.133 3.099 2.8010001 83
1.4400001 2.7909999 2.803 74
1.319 2.9130001 2.8010001 77
1.192 3.0209999 2.799 74
1.061 3.118 2.799 81
1.38 2.8369999 2.8050001 88
1.255 2.948 2.8 85
1.122 3.043 2.7939999 69
0.99299997 3.1429999 2.8050001 83
1.318 2.8770001 2.802 76
1.189 2.9820001 2.799 79
1.057 3.0780001 2.803 75
0.921 3.158 2.802 81
1.253 2.915 2.799 77
1.125 3.02 2.8039999 85
0.986 3.096 2.7969999 75
0.84899998 3.171 2.8010001 82
1.191 2.9590001 2.802 75
1.057 3.05 2.802 86
0.91600001 3.118 2.796 73
0.77999997 3.1900001 2.8050001 82
1.126 2.9990001 2.803 74
0.98900002 3.0780001 2.8010001 86
0.84799999 3.1440001 2.8010001 79
0.70599997 3.194 2.7980001 90
1.059 3.036 2.802 80
0.92000002 3.109 2.802 88
0.77700001 3.1600001 2.7980001 70
0.634 3.2019999 2.7950001 81
0.99299997 3.0769999 2.8069999 75
0.85000002 3.135 2.802 84
0.70599997 3.177 2.7969999 72
0.56400001 3.2190001 2.8039999 89
0.92299998 3.1099999 2.8050001 88
0.77999997 3.161 2.803 80
0.63599998 3.1989999 2.8010001 73
0.493 3.2279999 2.8039999 84
0.85299999 3.1459999 2.8080001 75
0.70899999 3.1889999 2.806 87
0.56400001 3.2130001 2.8010001 74
0.42199999 3.2349999 2.8050001 87
0.78200001 3.1760001 2.8069999 76
0.63800001 3.2160001 2.8099999 85
0.49200001 3.227 2.802 80
0.35100001 3.243 2.8080001 97
0.70899999 3.2060001 2.806 80
0.56400001 3.2309999 2.8039999 77
0.41999999 3.2379999 2.8010001 80
0.27900001 3.243 2.806 81
0.63599998 3.2390001 2.809 76
0.491 3.253 2.806 91
0.347 3.2539999 2.806 74
0.208 3.2460001 2.8080001 55
0.56199998 3.27 2.813 82
0.417 3.2690001 2.8050001 89
0.27500001 3.26 2.8039999 73
0.13600001 3.2449999 2.8080001 85
0.486 3.293 2.8110001 79
0.34200001 3.2869999 2.806 84
0.20200001 3.2620001 2.8 62
0.066 3.2460001 2.8099999 86
0.40900001 3.3150001 2.809 78
0.26699999 3.3069999 2.812 90
0.12800001 3.2709999 2.803 72
-0.0040000002 3.2349999 2.8039999 82
0.33199999 3.346 2.8169999 78
0.191 3.313 2.806 66
0.055 3.276 2.8039999 77
-0.074000001 3.233 2.8069999 86
0.25299999 3.358 2.8110001 79
0.115 3.3269999 2.8080001 84
-0.017000001 3.28 2.8069999 74
-0.14399999 3.2279999 2.8080001 82
0.17299999 3.372 2.8069999 76
0.039000001 3.342 2.8139999 89
-0.090000004 3.2809999 2.8069999 75
-0.213 3.2119999 2.8010001 80
0.093999997 3.4000001 2.8169999 82
-0.037999999 3.3469999 2.812 88
-0.163 3.2780001 2.8050001 76
-0.28299999 3.2090001 2.806 86
0.013 3.4000001 2.8050001 69
-0.115 3.348 2.8080001 87
-0.237 3.2820001 2.812 74
-0.352 3.197 2.8050001 79
-0.067000002 3.3829999 2.78 68
-0.193 3.3559999 2.812 88
-0.31 3.273 2.8080001 75
-0.41999999 3.1830001 2.8050001 81
-0.086000003 1.964 1.609 1
-0.15899999 1.971 1.65 0
-0.38299999 3.263 2.8039999 75
-0.48899999 3.1760001 2.8099999 85
-0.132 1.956 1.599 0
-0.20100001 1.934 1.619 0
-0.45699999 3.2609999 2.8099999 75
-0.55599999 3.158 2.8080001 80
-0.17399999 1.898 1.548 0
-0.42699999 3.358 2.8139999 81
-0.52899998 3.2509999 2.809 77
-0.62300003 3.1389999 2.8050001 80
-0.22400001 1.938 1.58 1
-0.50599998 3.3499999 2.8110001 89
-0.60100001 3.2349999 2.8050001 75
-0.69 3.125 2.8080001 77
-0.45199999 3.227 2.6289999 66
-0.583 3.342 2.8080001 84
-0.67400002 3.2260001 2.8080001 78
-0.755 3.105 2.8080001 80
-0.53100002 3.224 2.6259999 68
-0.66299999 3.3410001 2.8139999 81
-0.74599999 3.2119999 2.8080001 74
-0.81999999 3.0799999 2.803 80
-0.611 3.2279999 2.631 70
-0.74199998 3.3340001 2.8150001 95
-0.81699997 3.194 2.806 78
-0.88700002 3.069 2.813 83
-0.69499999 3.2420001 2.6459999 71
-0.81800002 3.313 2.8080001 69
-0.889 3.178 2.8069999 78
-0.949 3.039 2.8069999 79
-0.77200001 3.223 2.635 55
-0.89999998 3.312 2.8169999 89
-0.95899999 3.1570001 2.806 72
-1.012 3.0120001 2.8039999 77
-0.88800001 3.3499999 2.7460001 68
-0.97799999 3.2969999 2.8180001 83
-1.029 3.138 2.8069999 76
-1.076 2.99 2.8069999 78
-0.97899997 3.3640001 2.766 67
-1.054 3.276 2.8139999 86
-1.098 3.112 2.8039999 71
-1.136 2.9590001 2.803 78
-1.068 3.369 2.7809999 74
-1.1339999 3.263 2.819 84
-1.168 3.089 2.8050001 71
-1.199 2.9330001 2.8050001 79
-1.159 3.3710001 2.7950001 77
-1.209 3.2360001 2.8139999 87
-1.2359999 3.0599999 2.8010001 73
-1.261 2.908 2.809 78
-1.25 3.3699999 2.8080001 78
-1.286 3.2130001 2.813 82
-1.306 3.039 2.806 79
-1.3200001 2.875 2.8069999 79
-1.336 3.355 2.813 75
-1.364 3.1900001 2.8139999 86
-1.373 3.01 2.8050001 75
-1.377 2.8380001 2.8010001 79
-1.425 3.3410001 2.8199999 76
-1.439 3.1619999 2.813 82
-1.4400001 2.9779999 2.803 73
-1.4400001 2.8150001 2.8099999 78
-1.508 3.313 2.816 76
-1.512 3.1300001 2.809 82
-1.5089999 2.9549999 2.8099999 78
-1.494 2.7739999 2.803 86
-1.59 3.2820001 2.813 75
-1.589 3.1040001 2.813 76
-1.571 2.914 2.802 77
-1.548 2.7349999 2.7969999 75
-1.677 3.2590001 2.8180001 73
-1.6619999 3.0699999 2.8110001 84
-1.635 2.8789999 2.8010001 75
-1.608 2.7060001 2.8050001 86
-1.76 3.2279999 2.8180001 24
-1.735 3.0339999 2.809 82
-1.7029999 2.8499999 2.8080001 79
-1.663 2.6700001 2.8039999 78
-1.841 3.1919999 2.816 74
-1.809 3.0009999 2.8110001 74
-1.767 2.8139999 2.8080001 77
-1.717 2.631 2.8039999 77
-1.928 3.1630001 2.822 75
-1.883 2.9660001 2.813 83
-1.826 2.7690001 2.8010001 84
-1.773 2.596 2.8080001 89
-2.0090001 3.125 2.822 69
-1.952 2.924 2.8110001 83
-1.89 2.734 2.806 78
-1.825 2.5539999 2.8050001 78
-1.9579999 2.892 2.645 58
-2.0209999 2.8800001 2.8069999 83
-1.952 2.6930001 2.8069999 81
-1.876 2.5120001 2.8039999 81
-2.017 2.829 2.6240001 48
-1.954 2.652 2.6240001 59
-2.01 2.6489999 2.8039999 84
-1.928 2.473 2.806 94
-2.24 2.9879999 2.812 72
-2.0039999 2.5940001 2.6070001 44
-1.992 2.5079999 2.6989999 87
-1.974 2.425 2.799 75
-2.3150001 2.938 2.809 75
-2.2249999 2.7449999 2.8050001 78
-1.9809999 2.385 2.612 47
-2.023 2.381 2.7980001 77
-2.3959999 2.895 2.8139999 75
-2.293 2.6989999 2.8069999 86
-2.1589999 2.4849999 2.7709999 67
-1.992 2.2479999 2.6919999 61
-2.4719999 2.845 2.8150001 71
-2.355 2.6470001 2.8039999 79
-2.24 2.467 2.803 82
-1.973 2.135 2.6059999 48
-2.5420001 2.7880001 2.8110001 75
-2.4189999 2.5940001 2.802 84
-2.2950001 2.418 2.803 76
-2.0669999 2.1440001 2.671 56
-2.6159999 2.734 2.812 72
-2.4820001 2.543 2.803 73
-2.349 2.368 2.802 78
-2.2030001 2.1919999 2.7880001 84
-2.687 2.6760001 2.8110001 75
-2.54 2.4849999 2.7980001 81
-2.4030001 2.3180001 2.8039999 73
-2.2490001 2.145 2.789 73
-2.7539999 2.6140001 2.8080001 74
-2.6040001 2.4319999 2.802 77
-2.4530001 2.2639999 2.8010001 76
-2.3 2.105 2.799 76
-2.823 2.5539999 2.8080001 74
-2.6659999 2.3770001 2.8039999 80
-2.5020001 2.2090001 2.799 77
-2.346 2.0580001 2.802 77
-2.8929999 2.494 2.8110001 73
-2.7190001 2.3150001 2.799 74
-2.552 2.155 2.799 76
-2.388 2.0090001 2.802 77
-2.9530001 2.425 2.806 72
-2.777 2.256 2.8010001 89
-2.599 2.099 2.7980001 79
-2.4230001 1.9529999 2.7950001 83
-3.02 2.3610001 2.809 73
-2.809 2.1760001 2.7780001 96
-2.645 2.0409999 2.796 78
-2.4660001 1.904 2.799 77
-3.0539999 2.2720001 2.783 83
-2.858 2.1110001 2.773 110
-2.697 1.988 2.802 81
-2.507 1.854 2.802 76
-3.1370001 2.2190001 2.803 75
-2.9100001 2.0480001 2.7739999 121
-2.7349999 1.925 2.7950001 80
-2.543 1.8 2.799 77
-3.1989999 2.1489999 2.806 76
-2.9630001 1.984 2.776 123
-2.7650001 1.857 2.7809999 97
-2.5799999 1.747 2.799 77
-3.2479999 2.072 2.8 74
-2.9979999 1.91 2.763 118
-2.803 1.794 2.7780001 100
-2.6110001 1.689 2.793 79
-3.2969999 1.994 2.7950001 75
-3.056 1.849 2.773 120
-2.8399999 1.7309999 2.7739999 108
-2.651 1.638 2.799 77
-3.359 1.923 2.802 74
-3.1240001 1.794 2.793 94
-2.868 1.663 2.763 121
-2.684 1.582 2.7980001 78
-3.4059999 1.844 2.8 75
-3.168 1.723 2.793 73
-2.9070001 1.601 2.7639999 130
-2.7149999 1.525 2.796 91
-3.448 1.761 2.7939999 72
-3.211 1.653 2.7939999 86
-2.944 1.539 2.7650001 140
-2.743 1.466 2.7920001 92
-3.4979999 1.683 2.796 77
-3.253 1.581 2.7939999 82
-2.974 1.472 2.76 133
-2.767 1.406 2.7850001 96
-3.543 1.602 2.7969999 71
-3.2869999 1.505 2.79 74
-3.01 1.408 2.7609999 124
-2.786 1.3430001 2.7739999 112
-3.572 1.513 2.786 74
-3.3280001 1.432 2.7920001 81
-3.0409999 1.3430001 2.76 128
-2.809 1.283 2.7679999 107
-3.618 1.432 2.7909999 78
-3.3599999 1.3559999 2.79 82
-3.0869999 1.283 2.773 110
-2.835 1.224 2.7679999 108
-3.655 1.347 2.79 76
-3.388 1.278 2.7850001 78
-3.1300001 1.221 2.7839999 91
-2.858 1.164 2.7639999 127
-3.687 1.261 2.7869999 74
-3.4230001 1.202 2.7869999 90
-3.1530001 1.151 2.78 77
-2.8789999 1.103 2.76 120
-3.72 1.174 2.7869999 77
-3.451 1.124 2.786 81
-3.1800001 1.082 2.779 80
-2.9089999 1.046 2.7650001 108
-3.7449999 1.085 2.7820001 74
-3.47 1.043 2.779 73
-3.2119999 1.015 2.7850001 80
-2.9560001 0.99299997 2.7880001 110
-3.773 0.99699998 2.7820001 72
-3.5009999 0.96600002 2.7820001 81
-3.2290001 0.94300002 2.779 75
-2.9760001 0.93099999 2.7850001 82
-3.8 0.90799999 2.7820001 73
-3.5250001 0.88599998 2.7820001 74
-3.2520001 0.87300003 2.779 73
-3 0.87099999 2.7880001 77
-3.8239999 0.81800002 2.7820001 76
-3.5409999 0.80500001 2.7780001 79
-3.273 0.80199999 2.779 80
-3.0139999 0.80599999 2.783 81
-3.8440001 0.72799999 2.7809999 72
-3.566 0.72500002 2.78 90
-3.29 0.73000002 2.777 80
-3.0280001 0.74299997 2.7780001 77
-3.865 0.63800001 2.783 75
-3.582 0.64399999 2.7780001 86
-3.3010001 0.65700001 2.77 79
-3.053 0.68199998 2.7850001 75
-3.8759999 0.546 2.777 76
-3.592 0.56099999 2.773 75
-3.325 0.58600003 2.777 86
-3.063 0.61699998 2.779 82
-3.8940001 0.45500001 2.78 67
-3.615 0.48100001 2.78 77
-3.3399999 0.514 2.777 74
-3.082 0.55400002 2.7820001 77
-3.8989999 0.36300001 2.776 72
-3.618 0.398 2.7720001 74
0 0 0 50
-3.096 0.48899999 2.7809999 76
-3.908 0.271 2.7750001 75
-3.628 0.315 2.7720001 76
-3.3670001 0.368 2.779 78
-3.1099999 0.42500001 2.7820001 77
-3.9070001 0.17900001 2.7690001 77
-3.6389999 0.233 2.773 74
-3.3710001 0.294 2.773 86
-3.115 0.359 2.776 77
-3.9119999 0.086999997 2.77 73
-3.6459999 0.15000001 2.773 75
-3.375 0.219 2.7690001 79
-3.1270001 0.294 2.777 76
-3.9119999 -0.0040000002 2.7679999 72
-3.6389999 0.067000002 2.7650001 74
-3.3870001 0.146 2.773 72
-3.1329999 0.228 2.7739999 75
-3.911 -0.094999999 2.767 76
-3.6470001 -0.014 2.7679999 75
-3.392 0.071999997 2.7720001 75
-3.1389999 0.162 2.7709999 75
-3.9070001 -0.18700001 2.766 74
-3.6500001 -0.097000003 2.77 75
-3.3929999 -0.001 2.77 79
-3.151 0.096000001 2.776 76
-3.902 -0.278 2.766 78
-3.6400001 -0.18000001 2.7639999 77
-3.395 -0.075999998 2.7690001 76
-3.151 0.029999999 2.7709999 78
-3.888 -0.36899999 2.7609999 75
-3.6400001 -0.26300001 2.766 73
-3.3929999 -0.15000001 2.767 76
-3.1530001 -0.035999998 2.7679999 75
-3.8840001 -0.46000001 2.7650001 74
-3.6340001 -0.345 2.7650001 74
-3.3900001 -0.22499999 2.7650001 74
-3.1600001 -0.103 2.7709999 76
-3.865 -0.55000001 2.76 75
-3.6240001 -0.42699999 2.763 85
-3.3889999 -0.30000001 2.766 77
-3.1570001 -0.169 2.767 75
-3.8469999 -0.63800001 2.757 73
-3.6140001 -0.509 2.7620001 78
-3.3800001 -0.37400001 2.7620001 77
-3.158 -0.237 2.767 76
-3.8310001 -0.72799999 2.757 78
-3.605 -0.59100002 2.763 82
-3.3729999 -0.44800001 2.7609999 79
-3.1589999 -0.30399999 2.7679999 77
-3.8150001 -0.81699997 2.7590001 74
-3.586 -0.671 2.7590001 79
-3.369 -0.523 2.763 80
-3.1500001 -0.37099999 2.7609999 75
-3.7869999 -0.903 2.7539999 73
-3.5699999 -0.75199997 2.7590001 77
-3.3529999 -0.59600002 2.7579999 80
-3.141 -0.43799999 2.756 73
-3.7609999 -0.98900002 2.7520001 75
-3.5550001 -0.833 2.7590001 74
-3.3399999 -0.66900003 2.7550001 75
-3.1489999 -0.50800002 2.767 75
-3.7360001 -1.076 2.7520001 76
-3.529 -0.912 2.7539999 77
-3.332 -0.74400002 2.7579999 79
-3.1300001 -0.57300001 2.7550001 75
-3.7049999 -1.16 2.7490001 75
-3.513 -0.99299997 2.757 79
-3.316 -0.81800002 2.757 83
-3.1229999 -0.64200002 2.7550001 76
-3.677 -1.245 2.7509999 74
-3.4879999 -1.071 2.7550001 78
-3.299 -0.89099997 2.7550001 80
-3.122 -0.71100003 2.7609999 79
-3.642 -1.3279999 2.7490001 77
-3.457 -1.147 2.75 79
-3.2839999 -0.96499997 2.756 77
-3.1059999 -0.778 2.756 76
-3.6059999 -1.41 2.747 72
-3.4330001 -1.225 2.7509999 82
-3.2590001 -1.035 2.75 73
-3.0899999 -0.84500003 2.7520001 76
-3.573 -1.492 2.7490001 74
-3.4059999 -1.303 2.7509999 78
-3.2379999 -1.108 2.75 75
-3.0710001 -0.91100001 2.7460001 94
-3.5320001 -1.572 2.7460001 74
-3.3699999 -1.376 2.7460001 74
-3.22 -1.181 2.7520001 81
-3.0510001 -0.977 2.74 111
-3.4879999 -1.649 2.743 75
-3.3440001 -1.455 2.7509999 77
-3.188 -1.25 2.7449999 79
-3.0239999 -1.041 2.7290001 113
-3.4489999 -1.728 2.7449999 75
-3.3050001 -1.526 2.7449999 73
-3.165 -1.322 2.7460001 76
-3.0039999 -1.107 2.7260001 116
-3.401 -1.802 2.7409999 75
-3.2709999 -1.6 2.7460001 80
-3.145 -1.395 2.7509999 75
-2.9879999 -1.175 2.7279999 122
-3.352 -1.876 2.7379999 73
-3.234 -1.673 2.7460001 74
-3.1070001 -1.461 2.7420001 77
-2.97 -1.243 2.7290001 119
-3.309 -1.952 2.7409999 74
-3.1930001 -1.744 2.743 89
-3.0739999 -1.529 2.7390001 87
-2.954 -1.312 2.7320001 120
-3.257 -2.023 2.7379999 73
-3.1489999 -1.812 2.7390001 84
-3.0109999 -1.581 2.71 121
-2.9349999 -1.381 2.7360001 109
-3.2060001 -2.0929999 2.7379999 76
-3.109 -1.883 2.74 81
-2.9860001 -1.653 2.717 146
-2.891 -1.438 2.717 120
-3.155 -2.1630001 2.7379999 76
-3.066 -1.952 2.74 83
-2.9590001 -1.724 2.723 71
-2.8710001 -1.507 2.721 123
-3.092 -2.2249999 2.73 76
-3.0190001 -2.0179999 2.7379999 76
-2.9419999 -1.802 2.7390001 78
-2.855 -1.5779999 2.7309999 106
-3.0369999 -2.2920001 2.73 75
-2.9749999 -2.086 2.7390001 83
-2.905 -1.869 2.74 74
-2.8239999 -1.643 2.7290001 76
-2.9790001 -2.355 2.7279999 76
-2.9289999 -2.1530001 2.7409999 81
-2.865 -1.934 2.7379999 73
-2.7850001 -1.7029999 2.7190001 113
-2.925 -2.421 2.7320001 73
-2.8729999 -2.2119999 2.734 80
-2.8329999 -2.0039999 2.7449999 75
-2.776 -1.7819999 2.74 77
-2.865 -2.483 2.7309999 76
-2.8239999 -2.276 2.7360001 85
-2.7839999 -2.0639999 2.7379999 75
-2.7379999 -1.844 2.734 76
-2.8069999 -2.5450001 2.733 79
-2.7720001 -2.3369999 2.734 81
-2.7379999 -2.1240001 2.734 76
-2.7049999 -1.91 2.7360001 78
-2.7409999 -2.5999999 2.73 78
-2.714 -2.3940001 2.73 73
-2.697 -2.191 2.7379999 73
-2.6719999 -1.976 2.7390001 73
-2.681 -2.6589999 2.7309999 80
-2.6670001 -2.4590001 2.737 89
-2.651 -2.2520001 2.737 74
-2.6300001 -2.036 2.733 73
-2.615 -2.7119999 2.7290001 76
-2.609 -2.5150001 2.734 83
-2.599 -2.309 2.733 73
-2.5940001 -2.102 2.7360001 77
-2.549 -2.7650001 2.7290001 78
-2.549 -2.569 2.7309999 86
-2.552 -2.369 2.734 74
-2.5569999 -2.1670001 2.7390001 79
-2.4760001 -2.8099999 2.7219999 77
-2.4890001 -2.6229999 2.7290001 79
-2.5009999 -2.428 2.733 74
-2.5050001 -2.221 2.7279999 74
-2.3800001 -2.8239999 2.688 72
-2.4319999 -2.6800001 2.7320001 74
-2.451 -2.4860001 2.734 74
-2.467 -2.2869999 2.734 74
-2.187 -2.717 2.543 57
-2.3699999 -2.73 2.73 82
-2.3959999 -2.5420001 2.7309999 74
-2.421 -2.346 2.7320001 78
-2.1099999 -2.743 2.527 48
-2.309 -2.783 2.73 87
-2.345 -2.5999999 2.7349999 74
-2.372 -2.404 2.7290001 77
-2.082 -2.8340001 2.572 48
-2.234 -2.816 2.7149999 116
-2.2850001 -2.6489999 2.7290001 79
-2.323 -2.46 2.7260001 77
-2.0190001 -2.8789999 2.5769999 47
-2.027 -2.674 2.5350001 60
-2.2320001 -2.7060001 2.7320001 79
-2.2780001 -2.5239999 2.7309999 78
-1.928 -2.882 2.5450001 49
-1.959 -2.7060001 2.5239999 54
-2.105 -2.6719999 2.6459999 65
-2.217 -2.5699999 2.7190001 68
-1.8380001 -2.885 2.5150001 50
-1.905 -2.7579999 2.5339999 46
-1.971 -2.6199999 2.546 64
-2.0179999 -2.4489999 2.5339999 62
-1.748 -2.8829999 2.483 50
-1.874 -2.845 2.576 47
-1.911 -2.6600001 2.54 63
-2.0009999 -2.5420001 2.575 58
-1.663 -2.8829999 2.4560001 49
-1.806 -2.878 2.569 48
-1.85 -2.7 2.5350001 63
-2.0120001 -2.678 2.658 63
-1.582 -2.8870001 2.4330001 49
-1.722 -2.8840001 2.5409999 47
-1.781 -2.727 2.52 46
-2.0079999 -2.803 2.7290001 80
-1.497 -2.8800001 2.404 53
-1.636 -2.882 2.5079999 50
-1.739 -2.7969999 2.5439999 47
-1.916 -2.8050001 2.6800001 73
-1.416 -2.875 2.3770001 54
-1.556 -2.8859999 2.4820001 52
-1.702 -2.8789999 2.5799999 48
-1.752 -2.694 2.527 53
-1.341 -2.881 2.362 53
-1.472 -2.882 2.45 54
-1.618 -2.8789999 2.5450001 47
-1.696 -2.7420001 2.5280001 47
-1.2640001 -2.8770001 2.339 55
-1.391 -2.8789999 2.421 54
-1.5369999 -2.8859999 2.5150001 48
-1.677 -2.855 2.5880001 49
-1.1900001 -2.8759999 2.322 54
-1.318 -2.8870001 2.404 55
-1.455 -2.885 2.483 52
-1.604 -2.878 2.5669999 49
-1.117 -2.8770001 2.3069999 56
-1.2410001 -2.8829999 2.378 53
-1.374 -2.881 2.4489999 51
-1.521 -2.882 2.5320001 48
-1.043 -2.869 2.286 55
-1.164 -2.8770001 2.352 54
-1.294 -2.8759999 2.4159999 54
-1.4400001 -2.885 2.497 49
-0.972 -2.865 2.27 57
-1.094 -2.8829999 2.3380001 55
-1.217 -2.8770001 2.3900001 54
-1.3559999 -2.878 2.457 49
-0.90600002 -2.872 2.263 58
-1.02 -2.878 2.3150001 53
-1.141 -2.8729999 2.362 54
-1.279 -2.8840001 2.428 49
-0.83899999 -2.875 2.256 58
-0.949 -2.8759999 2.2969999 59
-1.069 -2.878 2.3429999 54
-1.2 -2.8829999 2.3959999 49
-0.77100003 -2.8710001 2.243 56
-0.87800002 -2.872 2.279 60
-0.99400002 -2.872 2.3150001 53
-1.12 -2.875 2.3599999 51
-0.70499998 -2.8740001 2.237 57
-0.81099999 -2.8740001 2.266 60
-0.92000002 -2.8629999 2.2880001 53
-1.043 -2.872 2.3299999 53
-0.64200002 -2.881 2.2349999 63
-0.74199998 -2.8699999 2.25 59
-0.85299999 -2.872 2.276 53
-0.97000003 -2.8740001 2.306 54
-0.57499999 -2.8710001 2.2219999 58
-0.676 -2.8710001 2.2390001 60
-0.78299999 -2.8710001 2.2579999 52
-0.89300001 -2.8610001 2.2709999 54
-0.51200002 -2.8740001 2.2190001 58
-0.611 -2.875 2.233 57
-0.713 -2.865 2.237 51
-0.82200003 -2.862 2.25 55
-0.447 -2.8599999 2.2049999 78
-0.54400003 -2.8670001 2.2160001 54
-0.64600003 -2.869 2.2249999 52
-0.75300002 -2.8699999 2.234 56
-0.384 -2.855 2.198 77
-0.47999999 -2.8699999 2.2119999 56
-0.57800001 -2.8670001 2.21 51
-0.68000001 -2.8640001 2.2090001 56
-0.324 -2.878 2.214 61
-0.41 -2.8299999 2.1730001 127
-0.50999999 -2.8610001 2.1919999 52
-0.61199999 -2.8699999 2.1960001 58
-0.26199999 -2.872 2.2090001 65
-0.352 -2.8699999 2.198 62
-0.44600001 -2.8699999 2.188 49
-0.54299998 -2.8699999 2.1789999 57
-0.2 -2.875 2.211 64
-0.289 -2.8729999 2.1960001 63
-0.377 -2.848 2.1619999 73
-0.47299999 -2.8640001 2.1589999 58
-0.139 -2.8740001 2.2119999 63
-0.22499999 -2.8659999 2.187 63
-0.31400001 -2.862 2.1630001 53
-0.39899999 -2.823 2.1140001 92
-0.078000002 -2.8740001 2.2149999 64
-0.163 -2.869 2.1860001 61
-0.249 -2.8640001 2.1559999 58
-0.33899999 -2.872 2.138 68
-0.017000001 -2.8729999 2.217 63
-0.1 -2.869 2.1849999 62
-0.184 -2.862 2.1489999 55
-0.27000001 -2.865 2.1199999 64
0.041999999 -2.8729999 2.221 66
-0.037 -2.865 2.181 60
-0.119 -2.8599999 2.142 50
-0.20299999 -2.8629999 2.109 66
0.103 -2.8699999 2.223 61
0.024 -2.865 2.181 60
-0.055 -2.8629999 2.1389999 49
-0.13600001 -2.865 2.1010001 61
0.164 -2.8670001 2.227 57
0.086999997 -2.869 2.1849999 61
0.0080000004 -2.8629999 2.135 54
-0.068999998 -2.8670001 2.0940001 63
0.22499999 -2.875 2.2409999 64
0.149 -2.8659999 2.1860001 61
0.072999999 -2.862 2.1329999 52
-0.0020000001 -2.869 2.089 66
0.285 -2.8710001 2.2460001 60
0.211 -2.865 2.188 58
0.138 -2.8659999 2.135 52
0.056000002 -2.5179999 1.829 20
0.347 -2.8699999 2.2539999 61
0.27500001 -2.8759999 2.201 64
0.20200001 -2.859 2.1289999 51
0.115 -2.51 1.819 22
0.40799999 -2.875 2.2679999 62
0.338 -2.869 2.201 61
0.26699999 -2.859 2.1300001 49
0.175 -2.52 1.823 23
0.46900001 -2.868 2.273 55
0.40099999 -2.865 2.204 62
0.33199999 -2.859 2.132 53
0.234 -2.523 1.823 23
0.53100002 -2.868 2.2850001 55
0.465 -2.8659999 2.2130001 60
0.398 -2.8529999 2.131 54
0.294 -2.5220001 1.822 24
0.59399998 -2.868 2.2980001 56
0.52899998 -2.8670001 2.2219999 56
0.463 -2.8529999 2.135 57
0.35699999 -2.536 1.832 23
0.65600002 -2.8640001 2.309 56
0.59299999 -2.865 2.23 59
0.53100002 -2.862 2.148 60
0.42300001 -2.5699999 1.858 22
0.71799999 -2.8629999 2.323 55
0.65899998 -2.868 2.243 58
0.59899998 -2.8610001 2.1530001 52
0.53100002 -2.812 2.036 33
0.78399998 -2.8699999 2.345 56
0.72299999 -2.8629999 2.2509999 60
0.66600001 -2.8599999 2.161 56
0.60699999 -2.8440001 2.063 40
0.84799999 -2.8659999 2.359 57
0.79100001 -2.8640001 2.2650001 63
0.736 -2.862 2.171 51
0.68300003 -2.8629999 2.082 59
0.91299999 -2.865 2.3770001 54
0.85900003 -2.8670001 2.2820001 66
0.80699998 -2.8659999 2.1849999 56
0.755 -2.8659999 2.0910001 61
0.98199999 -2.8740001 2.404 53
0.92699999 -2.8659999 2.2969999 67
0.87599999 -2.862 2.1930001 52
0.829 -2.869 2.1010001 61
1.048 -2.8699999 2.421 53
0.99699998 -2.8670001 2.3139999 63
0.94800001 -2.865 2.2079999 54
0.90200001 -2.8640001 2.1070001 59
1.114 -2.8659999 2.4400001 52
1.0700001 -2.875 2.339 63
1.0190001 -2.862 2.22 54
0.97600001 -2.8629999 2.1170001 59
1.186 -2.8740001 2.471 53
1.141 -2.875 2.358 61
1.094 -2.8629999 2.237 54
1.052 -2.862 2.128 57
1.258 -2.875 2.4960001 52
1.214 -2.875 2.3789999 54
1.171 -2.8670001 2.257 55
1.1289999 -2.8610001 2.141 60
1.33 -2.8759999 2.5239999 53
1.289 -2.8759999 2.4030001 55
1.249 -2.869 2.277 55
1.207 -2.8570001 2.154 59
1.406 -2.882 2.5569999 49
1.363 -2.872 2.4230001 56
1.327 -2.8699999 2.2980001 54
1.291 -2.8629999 2.175 58
1.473 -2.868 2.5739999 50
1.442 -2.875 2.451 54
1.4069999 -2.8699999 2.3199999 54
1.374 -2.8659999 2.1960001 57
1.522 -2.8180001 2.559 49
1.523 -2.8789999 2.4820001 54
1.489 -2.8699999 2.3440001 54
1.4579999 -2.8640001 2.214 55
1.553 -2.7379999 2.517 47
1.604 -2.8789999 2.5109999 53
1.573 -2.8699999 2.369 55
1.5470001 -2.868 2.24 56
1.602 -2.694 2.5090001 54
1.684 -2.8729999 2.536 52
1.663 -2.8770001 2.402 54
1.637 -2.8699999 2.266 50
1.664 -2.6700001 2.5220001 60
1.773 -2.8800001 2.575 53
1.752 -2.8759999 2.431 55
1.729 -2.869 2.2909999 51
1.721 -2.638 2.526 64
1.8279999 -2.8310001 2.5650001 49
1.839 -2.8710001 2.4579999 53
1.827 -2.8729999 2.323 53
1.91 -2.799 2.72 93
1.864 -2.7520001 2.53 48
1.933 -2.872 2.493 50
1.924 -2.8729999 2.3540001 53
1.9579999 -2.7460001 2.7090001 95
1.918 -2.704 2.523 54
2.03 -2.8710001 2.529 50
2.02 -2.8670001 2.3829999 51
2.0209999 -2.714 2.7190001 91
2.02 -2.72 2.5769999 100
2.125 -2.8659999 2.563 49
2.1270001 -2.8710001 2.4219999 52
2.073 -2.6689999 2.7179999 77
2.1670001 -2.79 2.6860001 49
2.1619999 -2.7809999 2.527 43
2.24 -2.878 2.4660001 51
2.1300001 -2.6270001 2.7219999 81
2.2579999 -2.78 2.7219999 87
2.2190001 -2.723 2.517 46
2.346 -2.869 2.5009999 48
2.1819999 -2.5810001 2.721 82
2.3180001 -2.7290001 2.72 92
2.3150001 -2.7119999 2.552 58
2.47 -2.8789999 2.5539999 48
2.2290001 -2.527 2.714 94
2.378 -2.6789999 2.72 90
2.5050001 -2.802 2.6860001 74
2.563 -2.846 2.5739999 51
2.2809999 -2.4809999 2.7160001 80
2.437 -2.628 2.72 79
2.6029999 -2.7809999 2.7190001 76
2.6040001 -2.757 2.543 53
2.335 -2.438 2.721 76
2.497 -2.5780001 2.723 80
2.6700001 -2.7260001 2.72 73
2.7030001 -2.7279999 2.5699999 61
2.3840001 -2.3870001 2.72 87
2.55 -2.5209999 2.72 84
2.7349999 -2.6659999 2.7190001 72
2.9219999 -2.812 2.7090001 69
2.4260001 -2.3310001 2.7130001 90
2.6070001 -2.467 2.72 76
2.7980001 -2.6059999 2.7190001 72
3.0039999 -2.7550001 2.717 68
2.4779999 -2.2850001 2.7190001 76
2.661 -2.411 2.721 80
2.859 -2.5420001 2.717 74
3.079 -2.6919999 2.721 70
2.5220001 -2.2309999 2.7160001 74
2.7130001 -2.3510001 2.7179999 82
2.925 -2.484 2.7219999 72
3.151 -2.6240001 2.723 68
2.569 -2.1789999 2.7179999 77
2.7679999 -2.296 2.721 81
2.984 -2.4189999 2.721 71
3.2149999 -2.55 2.72 69
2.619 -2.1300001 2.723 77
2.8199999 -2.2360001 2.7219999 76
3.04 -2.3510001 2.7190001 71
3.28 -2.477 2.72 68
2.661 -2.0739999 2.721 76
2.865 -2.1719999 2.717 82
3.1040001 -2.289 2.7260001 73
3.345 -2.402 2.721 70
2.6989999 -2.016 2.717 78
2.9170001 -2.1129999 2.72 72
3.158 -2.2190001 2.724 73
3.408 -2.326 2.7219999 67
2.7490001 -1.964 2.7249999 76
2.9630001 -2.049 2.7190001 74
3.211 -2.148 2.723 72
3.4719999 -2.25 2.724 69
2.786 -1.906 2.7219999 76
3.0120001 -1.987 2.721 71
3.2679999 -2.079 2.7279999 71
3.533 -2.171 2.727 67
2.8269999 -1.848 2.7219999 76
3.0639999 -1.926 2.727 72
3.316 -2.0039999 2.7249999 72
3.585 -2.086 2.7219999 66
2.865 -1.789 2.7219999 72
3.109 -1.86 2.7279999 78
3.3599999 -1.927 2.721 73
3.6500001 -2.0090001 2.73 65
2.9070001 -1.732 2.7249999 74
3.148 -1.7920001 2.7249999 76
3.4159999 -1.8559999 2.7290001 74
3.701 -1.923 2.7290001 68
2.9389999 -1.669 2.72 75
3.194 -1.726 2.7279999 81
3.4630001 -1.78 2.7290001 71
3.7509999 -1.837 2.73 66
2.9860001 -1.615 2.7309999 75
3.233 -1.656 2.727 71
3.503 -1.7 2.727 74
3.8 -1.75 2.73 68
3.0150001 -1.55 2.7260001 70
3.27 -1.586 2.727 73
3.552 -1.624 2.7309999 72
3.855 -1.665 2.737 68
3.0480001 -1.487 2.724 74
3.3150001 -1.518 2.7320001 73
3.595 -1.545 2.733 63
3.895 -1.572 2.734 68
3.0840001 -1.426 2.7279999 76
3.3540001 -1.448 2.7360001 74
3.6289999 -1.462 2.7290001 69
3.938 -1.482 2.7349999 70
3.1170001 -1.363 2.7290001 75
3.388 -1.375 2.7349999 73
3.6760001 -1.383 2.737 71
3.9820001 -1.391 2.7390001 67
3.1459999 -1.298 2.727 75
3.4189999 -1.301 2.734 72
3.7079999 -1.299 2.7349999 71
4.0159998 -1.296 2.737 69
3.1849999 -1.2359999 2.7360001 72
3.4549999 -1.228 2.7379999 72
3.7390001 -1.215 2.7349999 72
4.0560002 -1.2029999 2.7409999 70
3.214 -1.17 2.7349999 76
3.4790001 -1.151 2.733 71
3.7720001 -1.13 2.7360001 75
2.8440001 -0.76999998 1.9069999 72
3.24 -1.103 2.734 76
3.523 -1.08 2.744 73
2.8399999 -0.77999997 2.043 64
2.836 -0.69599998 1.888 73
3.27 -1.0369999 2.737 75
2.832 -0.80000001 2.1900001 95
2.832 -0.708 2.0239999 67
2.8499999 -0.62800002 1.885 68
3.296 -0.96899998 2.7379999 74
2.839 -0.73500001 2.1789999 61
2.8410001 -0.64200002 2.017 63
2.8499999 -0.55699998 1.874 69
2.8369999 -0.76999998 2.3399999 55
2.8399999 -0.66900003 2.1659999 66
2.8329999 -0.57200003 1.999 64
2.846 -0.486 1.862 59
2.8440001 -0.70700002 2.329 56
2.845 -0.60399997 2.1559999 64
2.839 -0.505 1.993 60
2.848 -0.417 1.854 62
2.8440001 -0.64399999 2.3150001 56
2.8380001 -0.537 2.138 66
2.848 -0.44 1.99 60
2.8499999 -0.34799999 1.848 67
2.845 -0.58099997 2.3010001 56
2.839 -0.472 2.128 70
2.8469999 -0.373 1.98 61
2.846 -0.28 1.839 67
2.848 -0.51800001 2.29 62
2.8399999 -0.40799999 2.119 71
2.8499999 -0.30599999 1.975 57
2.8529999 -0.212 1.8380001 69
2.8440001 -0.45500001 2.276 54
2.8380001 -0.34299999 2.108 73
2.852 -0.241 1.97 55
2.845 -0.14300001 1.829 68
2.8440001 -0.39300001 2.2639999 63
2.8440001 -0.28 2.105 72
2.8499999 -0.175 1.9630001 58
4.2649999 -0.114 2.7390001 20
2.8499999 -0.33199999 2.2590001 64
2.8429999 -0.21699999 2.0969999 70
2.859 -0.109 1.965 45
4.2540002 -0.012 2.7290001 59
2.848 -0.27000001 2.2479999 66
2.8399999 -0.153 2.089 73
3.987 -0.061000001 2.7360001 63
4.2379999 0.086999997 2.7179999 9
2.848 -0.20900001 2.24 64
2.8800001 -0.090999998 2.1129999 14
3.9879999 0.029999999 2.734 63
4.237 0.18799999 2.7179999 8
2.849 -0.148 2.234 65
3.763 -0.035 2.756 71
4.0040002 0.122 2.743 58
4.2340002 0.28799999 2.7179999 8
3.5409999 -0.108 2.7690001 61
3.7709999 0.048 2.7579999 75
4.007 0.215 2.7449999 60
4.2420001 0.38999999 2.7279999 7
3.523 -0.030999999 2.7479999 72
3.777 0.132 2.7590001 71
4.0019999 0.30700001 2.743 58
4.2220001 0.48800001 2.72 8
3.5320001 0.044 2.7490001 71
3.7780001 0.21699999 2.7590001 72
3.9979999 0.39899999 2.744 59
4.2340002 0.59200001 2.7349999 56
3.539 0.121 2.75 70
3.7739999 0.301 2.7550001 71
3.993 0.491 2.7449999 53
4.2329998 0.69400001 2.744 49
3.54 0.198 2.747 70
3.776 0.38600001 2.7590001 74
3.9790001 0.583 2.74 65
4.2410002 0.79799998 2.76 67
3.55 0.27500001 2.753 70
3.7739999 0.47099999 2.7590001 72
3.9690001 0.67500001 2.7409999 64
4.23 0.89999998 2.7650001 67
3.5539999 0.35299999 2.7550001 68
3.7709999 0.55699998 2.7609999 72
3.987 0.773 2.763 65
4.2129998 1 2.7679999 77
3.553 0.43200001 2.7539999 67
3.7679999 0.64300001 2.7639999 72
3.9749999 0.86500001 2.7650001 69
4.1929998 1.101 2.7709999 74
3.5539999 0.51099998 2.757 70
3.7620001 0.72899997 2.766 71
3.9560001 0.95599997 2.763 67
4.1659999 1.199 2.7709999 68
3.562 0.59200001 2.7650001 69
3.7449999 0.81300002 2.7609999 70
3.9389999 1.049 2.766 68
4.1350002 1.296 2.77 68
3.5569999 0.671 2.7650001 70
3.734 0.89899999 2.763 71
0 0 0 50
4.1009998 1.392 2.7679999 66
3.5469999 0.75099999 2.7620001 66
3.73 0.98699999 2.77 72
3.898 1.233 2.7679999 67
4.079 1.492 2.7750001 66
3.54 0.83099997 2.763 70
0 0 0 50
3.878 1.325 2.773 67
4.0440001 1.587 2.776 66
3.5339999 0.912 2.766 68
3.698 1.159 2.773 70
3.8529999 1.416 2.7750001 68
3.9960001 1.678 2.7709999 67
0 0 0 50
3.681 1.245 2.7750001 72
3.8139999 1.502 2.7690001 66
3.9679999 1.776 2.779 67
3.5150001 1.075 2.77 69
3.6559999 1.33 2.773 71
3.79 1.594 2.7750001 68
3.925 1.868 2.779 67
3.5 1.155 2.7709999 63
0 0 0 50
3.756 1.683 2.7739999 68
3.8770001 1.9579999 2.777 66
3.487 1.238 2.7720001 64
3.612 1.502 2.7780001 69
3.717 1.7690001 2.773 68
3.836 2.0510001 2.7820001 68
3.4690001 1.3200001 2.773 63
3.582 1.586 2.776 66
3.6849999 1.858 2.777 67
3.7850001 2.138 2.7809999 68
0 0 0 50
3.562 1.674 2.783 70
3.6459999 1.944 2.779 67
3.733 2.224 2.7809999 67
3.4289999 1.482 2.7739999 63
3.527 1.756 2.7820001 71
3.6010001 2.027 2.776 66
3.6830001 2.312 2.7839999 68
0 0 0 50
3.4920001 1.8380001 2.78 71
3.562 2.115 2.7809999 68
3.6270001 2.3959999 2.7839999 67
3.3829999 1.646 2.777 64
3.4660001 1.925 2.7880001 69
3.5139999 2.1960001 2.78 67
3.5650001 2.4760001 2.78 66
3.359 1.729 2.779 65
0 0 0 50
3.4649999 2.2780001 2.779 68
3.51 2.5610001 2.7850001 66
3.332 1.811 2.7809999 65
3.378 2.0829999 2.779 71
3.418 2.3610001 2.7820001 68
0 0 0 0
3.296 1.89 2.777 64
3.342 2.1670001 2.783 72
0 0 0 0
0.59200001 0.47499999 0.48699999 7
3.2679999 1.972 2.7809999 63
3.3050001 2.2509999 2.789 69
0.65799999 0.50099999 0.55299997 9
0.56900001 0.479 0.477 15
3.2390001 2.056 2.7850001 66
3.2579999 2.329 2.7869999 66
0.59500003 0.47400001 0.50800002 7
0.55900002 0.493 0.47799999 16
3.2 2.1340001 2.7839999 65
0 0 0 0
0.56699997 0.47400001 0.493 13
0.53100002 0.49000001 0.46399999 8
3.1659999 2.2179999 2.7880001 66
0.61000001 0.47999999 0.53799999 8
0.55400002 0.484 0.491 14
0.51899999 0.50300002 0.46399999 14
0 0 0 0
0.58099997 0.479 0.51999998 9
0.542 0.49700001 0.49000001 8
0.50199997 0.509 0.46000001 15
0.62800002 0.484 0.56800002 10
0.55400002 0.47799999 0.505 13
0.51800001 0.49700001 0.47799999 11
0.49200001 0.52200001 0.46200001 15
0.588 0.47499999 0.54000002 8
0.53899997 0.48699999 0.5 13
0.50199997 0.50400001 0.47299999 13
0.47999999 0.53299999 0.46200001 14
0.56300002 0.47600001 0.52499998 9
0.52999997 0.50099999 0.50099999 8
0.49399999 0.51999998 0.477 13
0.46399999 0.54000002 0.45899999 14
0.542 0.47999999 0.51300001 15
0.50700003 0.50099999 0.48899999 12
0.47999999 0.528 0.47400001 13
0.461 0.56099999 0.46799999 6
0.528 0.49000001 0.509 13
0.495 0.51300001 0.48699999 13
0.46599999 0.537 0.472 12
0.47 0.60000002 0.49200001 8
0.52100003 0.50599998 0.51099998 9
0.48100001 0.523 0.48500001 13
0.45699999 0.551 0.47499999 7
0.49900001 0.66799998 0.53799999 8
0.495 0.50400001 0.495 14
0.47099999 0.53600001 0.486 12
0.46399999 0.58700001 0.49599999 7
0.505 0.70999998 0.56300002 8
0.486 0.51800001 0.49599999 14
0.46599999 0.55500001 0.49200001 8
0.479 0.63499999 0.52700001 6
0.50700003 0.74699998 0.58399999 9
0.47400001 0.52999997 0.495 13
0.461 0.57499999 0.49900001 5
0.48800001 0.67900002 0.55299997 6
0.50099999 0.77600002 0.597 8
0.45899999 0.537 0.48899999 12
0.46799999 0.61299998 0.52200001 7
0.51200002 0.74800003 0.60000002 8
0.49000001 0.79900002 0.60600001 9
0.45699999 0.56099999 0.5 6
0.49399999 0.67799997 0.56599998 6
0.51099998 0.78399998 0.61799997 7
2.007 3.4389999 2.579 11
0.458 0.58999997 0.514 7
0.51200002 0.73799998 0.60500002 6
0.49700001 0.80199999 0.62300003 6
1.904 3.4419999 2.549 54
0.48199999 0.65200001 0.55599999 7
0.51499999 0.77999997 0.62800002 8
2.023 3.4360001 2.6289999 7
1.801 3.4349999 2.516 55
0.514 0.72899997 0.60900003 7
0.50400001 0.80299997 0.63499999 7
1.9170001 3.4330001 2.5910001 53
1.705 3.438 2.4909999 57
0.51200002 0.764 0.625 11
0.49000001 0.82099998 0.639 0
1.816 3.4330001 2.5569999 54
1.609 3.4389999 2.4660001 58
0.50300002 0.79100001 0.63499999 11
1.9450001 3.4400001 2.635 5
1.7180001 3.434 2.526 53
1.516 3.4389999 2.4430001 57
0.491 0.81199998 0.64099997 3
1.839 3.4349999 2.5929999 53
1.619 3.428 2.4920001 54
1.423 3.4360001 2.4189999 58
1.966 3.431 2.658 11
1.735 3.4300001 2.5510001 52
1.526 3.431 2.467 55
0 0 0 50
1.862 3.4349999 2.6159999 53
1.6390001 3.434 2.52 52
1.433 3.431 2.441 55
1.243 3.4300001 2.3770001 57
1.7589999 3.4349999 2.5739999 55
1.5369999 3.421 2.477 55
1.341 3.427 2.414 60
1.1569999 3.4300001 2.3599999 58
1.656 3.4300001 2.5309999 54
1.4450001 3.425 2.45 53
1.255 3.434 2.3970001 61
1.072 3.4260001 2.3429999 57
1.556 3.425 2.49 54
1.3559999 3.4319999 2.427 57
1.165 3.428 2.3710001 62
0.98900002 3.4289999 2.332 61
1.459 3.4260001 2.4549999 54
1.267 3.4360001 2.4030001 61
1.079 3.4260001 2.3499999 63
0.90499997 3.424 2.3150001 64
1.362 3.421 2.4189999 54
0 0 0 50
0.995 3.427 2.3340001 64
0.824 3.424 2.3050001 63
1.27 3.424 2.3889999 55
1.085 3.424 2.346 59
0.91000003 3.424 2.3150001 64
0.74400002 3.4219999 2.293 67
1.179 3.425 2.3599999 54
0.99900001 3.4300001 2.3269999 61
0.82700002 3.4260001 2.3010001 62
0.66399997 3.4230001 2.2839999 63
1.089 3.425 2.332 54
0.91299999 3.427 2.3039999 60
0.74699998 3.434 2.2920001 63
0.58700001 3.431 2.2820001 70
0.99699998 3.418 2.302 54
0.82999998 3.4330001 2.29 62
0.66600001 3.434 2.28 63
0.50800002 3.4219999 2.2709999 66
0.912 3.425 2.2820001 62
0.74599999 3.4349999 2.273 61
0.58399999 3.424 2.2620001 63
0.43099999 3.425 2.267 65
0.82499999 3.4260001 2.26 61
0.66299999 3.431 2.2550001 61
0.50599998 3.4319999 2.257 63
0.354 3.4260001 2.2639999 66
0.74000001 3.427 2.24 61
0.58099997 3.434 2.2420001 68
0.426 3.4289999 2.247 62
0.27700001 3.4189999 2.256 68
0.65499997 3.428 2.221 63
0.49900001 3.4319999 2.227 61
0.347 3.4170001 2.2320001 61
0.20100001 3.408 2.247 63
0.56900001 3.421 2.198 61
0.417 3.4260001 2.211 65
0.26899999 3.427 2.2320001 62
0.127 3.427 2.2590001 65
0.48500001 3.421 2.1819999 64
0.33700001 3.428 2.2019999 65
0.191 3.4119999 2.217 63
0.027000001 1.846 1.217 49
0.403 3.425 2.1700001 63
0.257 3.4289999 2.1930001 66
0.063000001 1.881 1.22 1
-0.012 1.834 1.21 89
0.31900001 3.4219999 2.154 66
0.176 3.421 2.1800001 66
0.02 1.834 1.188 61
-0.052000001 1.835 1.212 90
0.237 3.4189999 2.1389999 61
0.052000001 1.863 1.183 15
-0.021 1.832 1.186 91
-0.092 1.824 1.207 86
0.155 3.4319999 2.1359999 65
0.0089999996 1.831 1.159 64
-0.061999999 1.8329999 1.186 89
-0.133 1.836 1.217 81
0.039000001 1.849 1.145 59
-0.033 1.83 1.156 81
-0.103 1.818 1.176 81
-0.175 1.849 1.229 87
-0.0049999999 1.814 1.119 81
-0.075000003 1.8279999 1.153 78
-0.145 1.84 1.191 80
-0.215 1.849 1.232 84
-0.048999999 1.845 1.1339999 97
-0.118 1.826 1.151 79
-0.18799999 1.849 1.199 83
-0.25600001 1.846 1.234 85
-0.092 1.819 1.115 89
-0.162 1.842 1.16 73
-0.23 1.847 1.199 84
-0.29899999 1.858 1.247 72
-0.13699999 1.829 1.119 78
-0.206 1.848 1.164 87
-0.271 1.84 1.198 79
-0.345 1.885 1.271 23
-0.183 1.849 1.1289999 87
-0.249 1.841 1.16 87
-0.31799999 1.8660001 1.217 74
-0.70300001 3.414 2.313 65
-0.228 1.842 1.124 85
-0.294 1.851 1.168 70
-0.368 1.896 1.242 22
-0.78100002 3.415 2.326 62
-0.273 1.844 1.125 80
-0.34400001 1.882 1.1900001 72
-0.74400002 3.4230001 2.25 62
-0.85900003 3.4159999 2.3399999 60
-0.32499999 1.881 1.148 82
-0.40099999 1.937 1.227 19
-0.82499999 3.4230001 2.26 63
-0.93900001 3.4170001 2.355 65
-0.38100001 1.923 1.174 88
-0.79299998 3.424 2.175 63
-0.90700001 3.424 2.2709999 63
-1.0190001 3.418 2.372 57
-0.76300001 3.4219999 2.0929999 67
-0.87800002 3.4260001 2.1849999 66
-0.98799998 3.4189999 2.28 63
-1.098 3.415 2.3859999 56
-0.852 3.424 2.099 64
-0.96399999 3.427 2.194 61
-1.072 3.4170001 2.2920001 63
-1.182 3.4189999 2.4070001 57
-0.93900001 3.4219999 2.1029999 64
-1.049 3.4200001 2.1989999 61
-1.156 3.418 2.3080001 62
-1.262 3.4119999 2.4219999 57
-1.028 3.4189999 2.109 63
-1.138 3.424 2.214 60
-1.239 3.4089999 2.3169999 62
-1.347 3.414 2.4449999 57
-1.1210001 3.4260001 2.122 65
-1.226 3.4189999 2.223 62
-1.327 3.411 2.336 60
-1.4349999 3.4189999 2.47 56
-1.209 3.4130001 2.1240001 63
-1.314 3.414 2.2349999 61
-1.419 3.4159999 2.359 58
-1.52 3.415 2.4909999 58
-1.303 3.4130001 2.1359999 61
-1.41 3.4230001 2.257 61
-1.508 3.415 2.3789999 59
-1.6109999 3.4189999 2.52 57
-1.4 3.4159999 2.151 63
-1.502 3.418 2.2709999 60
-1.6 3.414 2.401 54
-1.702 3.4200001 2.5469999 57
-1.498 3.4170001 2.1670001 59
-1.598 3.418 2.2909999 59
-1.697 3.4189999 2.427 53
-1.793 3.418 2.575 57
-1.597 3.415 2.1819999 56
-1.697 3.4200001 2.313 56
-1.793 3.4189999 2.4530001 56
-1.8890001 3.4200001 2.6070001 56
-1.7 3.418 2.2030001 55
-1.7970001 3.4170001 2.3340001 53
-1.89 3.4159999 2.4790001 55
-1.985 3.4189999 2.638 55
-1.803 3.4119999 2.22 56
-1.901 3.4200001 2.3610001 54
-1.994 3.421 2.5120001 55
-2.073 3.402 2.6589999 54
-1.911 3.4159999 2.2449999 57
-2.0090001 3.4230001 2.3900001 55
-2.098 3.4219999 2.5439999 54
-2.1300001 3.3329999 2.6400001 50
-2.0239999 3.421 2.273 55
-2.115 3.4189999 2.4159999 54
-2.201 3.415 2.573 54
-2.178 3.2520001 2.6129999 52
-2.1370001 3.4200001 2.2980001 55
-2.224 3.414 2.444 54
-2.313 3.4189999 2.6110001 53
-2.302 3.2850001 2.678 65
-2.2550001 3.4200001 2.3280001 55
-2.3410001 3.418 2.48 55
-2.418 3.4089999 2.641 55
-2.4779999 3.3800001 2.7980001 68
-2.3800001 3.427 2.3640001 58
-2.4619999 3.4189999 2.517 56
-2.5079999 3.3729999 2.654 51
-2.5680001 3.3510001 2.8180001 71
-2.4979999 3.4159999 2.3900001 55
-2.5810001 3.4159999 2.553 55
-2.5480001 3.2709999 2.615 51
-2.6389999 3.296 2.8180001 69
-2.628 3.418 2.428 54
-2.71 3.4170001 2.596 52
-2.6400001 3.2379999 2.6329999 55
-2.7049999 3.234 2.8139999 68
-2.7650001 3.421 2.471 53
-2.8340001 3.4070001 2.6329999 56
-2.8710001 3.3659999 2.7850001 50
-2.7750001 3.1789999 2.816 67
-2.901 3.415 2.51 53
-2.9360001 3.368 2.6489999 49
-2.9779999 3.3369999 2.812 69
-2.8399999 3.118 2.8139999 67
-3.0409999 3.4100001 2.552 53
-2.9790001 3.26 2.6140001 50
-3.0539999 3.273 2.812 69
-2.905 3.0550001 2.812 69
-3.2 3.418 2.609 52
-3.188 3.3299999 2.724 64
-3.125 3.2030001 2.809 68
-2.971 2.9949999 2.8139999 67
-3.3469999 3.405 2.654 50
-3.378 3.368 2.8139999 72
-3.2030001 3.1400001 2.812 68
-3.033 2.931 2.812 66
-3.3989999 3.2950001 2.625 35
-3.4679999 3.3 2.819 70
-3.2679999 3.0639999 2.806 69
0 0 0 50
-3.566 3.2920001 2.684 43
-3.5420001 3.217 2.812 71
-3.3410001 2.9949999 2.8069999 68
-3.154 2.799 2.809 67
-3.835 3.3729999 2.8180001 69
-3.6229999 3.1400001 2.8139999 71
-3.408 2.921 2.8050001 68
-3.2149999 2.733 2.809 66
-3.9319999 3.2939999 2.8239999 71
-3.7019999 3.0610001 2.8139999 70
-3.4719999 2.845 2.803 67
-3.27 2.6630001 2.8069999 66
-4.0110002 3.1989999 2.8180001 72
-3.777 2.977 2.813 71
-3.536 2.7679999 2.8010001 67
-3.3239999 2.592 2.8050001 70
-4.052 3.073 2.7869999 69
-3.845 2.8889999 2.809 72
-3.6040001 2.694 2.803 67
-3.3800001 2.523 2.8039999 68
-4.046 2.918 2.7279999 61
-3.918 2.8039999 2.809 71
-3.665 2.6140001 2.802 67
-3.4319999 2.45 2.802 68
-4.052 2.7750001 2.6800001 61
-3.983 2.7130001 2.8050001 73
-3.7219999 2.5320001 2.799 67
-3.49 2.382 2.8069999 67
-4.053 2.635 2.6329999 64
-4.0349998 2.612 2.793 74
-3.7820001 2.4519999 2.799 66
-3.5380001 2.3069999 2.803 70
-4.0440001 2.4920001 2.582 62
-4.0640001 2.5 2.7690001 67
-3.836 2.368 2.7969999 68
-3.586 2.2309999 2.8010001 70
-4.052 2.3640001 2.5450001 62
-4.0549998 2.3659999 2.721 63
-3.8889999 2.283 2.7939999 68
-3.635 2.1559999 2.8010001 70
-4.052 2.2349999 2.506 65
-4.0479999 2.2379999 2.6760001 62
-3.9489999 2.2019999 2.7980001 68
-3.681 2.079 2.799 68
-4.0419998 2.1040001 2.4630001 65
-4.053 2.1199999 2.6429999 62
-3.9960001 2.1129999 2.7939999 73
-3.72 1.999 2.793 70
-4.0500002 1.9859999 2.434 66
-4.0489998 2 2.605 63
-4.0219998 2.0139999 2.777 74
-3.7690001 1.924 2.7980001 70
-4.0500002 1.8660001 2.402 65
-4.0409999 1.88 2.5669999 61
-4.0500002 1.9170001 2.7639999 70
-3.812 1.845 2.7969999 69
-4.046 1.748 2.3699999 64
-4.0510001 1.772 2.5439999 63
-4.0430002 1.804 2.727 64
-3.852 1.765 2.7950001 67
-4.0510001 1.636 2.346 66
0 0 0 50
-4.0450001 1.699 2.7 62
-3.8900001 1.684 2.793 72
-4.0479999 1.522 2.319 67
-4.0469999 1.551 2.487 65
-4.0549998 1.598 2.6789999 65
-3.924 1.601 2.79 71
-4.039 1.409 2.2909999 67
-4.053 1.447 2.4660001 63
-4.0450001 1.4910001 2.6459999 64
-3.96 1.5190001 2.789 69
-4.052 1.3049999 2.276 65
-4.0510001 1.341 2.4430001 63
-4.046 1.391 2.6229999 63
-3.9960001 1.436 2.7880001 73
-4.046 1.197 2.253 66
-4.052 1.239 2.4230001 66
-4.0500002 1.2920001 2.6029999 65
-4.0209999 1.349 2.7820001 74
-4.0440001 1.0930001 2.2349999 66
-4.0539999 1.138 2.405 69
-4.046 1.193 2.5799999 63
-4.0359998 1.26 2.77 72
-4.0450001 0.98900002 2.2190001 74
-4.0510001 1.0369999 2.385 69
-4.0489998 1.097 2.563 63
-4.0469999 1.17 2.756 71
-4.0489998 0.88800001 2.207 70
-4.0479999 0.93699998 2.3670001 68
-4.0510001 1.002 2.546 64
-4.0580001 1.08 2.743 70
-4.0419998 0.78600001 2.1889999 72
-4.0549998 0.84100002 2.3570001 70
-4.046 0.90499997 2.527 65
-4.0469999 0.986 2.7179999 67
-4.0510001 0.68800002 2.1830001 75
-4.0510001 0.74299997 2.3410001 72
-4.0500002 0.81199998 2.5139999 63
-4.052 0.89600003 2.704 66
-4.0469999 0.588 2.171 73
-4.0469999 0.64600003 2.3269999 72
-4.0450001 0.71899998 2.4979999 69
-4.0440001 0.80500001 2.6819999 65
-4.0380001 0.48899999 2.1570001 75
0 0 0 50
-4.0489998 0.62699997 2.487 63
-4.0469999 0.71700001 2.6700001 66
-4.046 0.39199999 2.154 77
-4.046 0.456 2.3080001 71
-4.0510001 0.53600001 2.4779999 61
-4.0580001 0.63 2.6630001 66
-4.0419998 0.29499999 2.1459999 75
-4.0510001 0.36199999 2.302 74
-4.0479999 0.44499999 2.4660001 68
-4.0510001 0.54100001 2.6459999 65
-4.0310001 0.198 2.1359999 78
-4.053 0.26899999 2.2980001 72
-4.046 0.35299999 2.4560001 69
-4.046 0.45300001 2.631 66
-3.9719999 0.101 2.1010001 110
-4.052 0.176 2.2920001 74
-4.0469999 0.26300001 2.45 72
-4.0560002 0.366 2.6270001 66
-3.9630001 0.0070000002 2.096 99
-4.0489998 0.082000002 2.286 74
-4.0479999 0.17399999 2.444 70
-4.0500002 0.27900001 2.6140001 65
-3.9649999 -0.086000003 2.096 94
-4.0539999 -0.0089999996 2.2869999 72
-4.0500002 0.082999997 2.4389999 69
-4.0489998 0.192 2.6059999 66
-3.9660001 -0.18000001 2.0969999 100
-4.053 -0.103 2.2850001 72
-4.0469999 -0.0049999999 2.434 72
-4.0549998 0.105 2.6029999 65
-3.9690001 -0.27399999 2.1010001 97
-4.0440001 -0.19499999 2.28 69
-4.0469999 -0.094999999 2.4319999 70
-4.0489998 0.018999999 2.5929999 66
-3.967 -0.36899999 2.1029999 94
-4.0580001 -0.289 2.289 71
-4.0489998 -0.185 2.431 68
-4.046 -0.066 2.5869999 65
-3.9679999 -0.463 2.109 100
-4.0500002 -0.382 2.2880001 73
-4.0469999 -0.27500001 2.4300001 72
-4.0570002 -0.154 2.5899999 65
-3.974 -0.55900002 2.118 103
-4.0489998 -0.47600001 2.2909999 73
-4.0500002 -0.366 2.4319999 72
-4.0489998 -0.23999999 2.582 66
-3.9719999 -0.65499997 2.125 87
-4.0450001 -0.56900001 2.293 73
-4.0430002 -0.456 2.4300001 67
-4.0419998 -0.32800001 2.576 65
-3.9920001 -0.75400001 2.145 80
-4.0430002 -0.66399997 2.299 72
-4.052 -0.54799998 2.4389999 70
-4.0549998 -0.41600001 2.5840001 65
-4.013 -0.85600001 2.1659999 77
-4.046 -0.759 2.3080001 70
-4.0510001 -0.63999999 2.4430001 70
-4.0479999 -0.50400001 2.5799999 65
-4.0289998 -0.95899999 2.1860001 73
-4.0469999 -0.85500002 2.3180001 69
-4.0430002 -0.73100001 2.444 71
-4.0510001 -0.59299999 2.5840001 66
-4.0510001 -1.0650001 2.2119999 73
-4.0549998 -0.95499998 2.3329999 72
-4.046 -0.824 2.4530001 70
-4.053 -0.68300003 2.5880001 67
-4.046 -1.165 2.224 66
-4.0430002 -1.05 2.3380001 70
-4.0560002 -0.921 2.467 64
-4.0479999 -0.77200001 2.5899999 64
-4.0419998 -1.267 2.237 72
-4.0549998 -1.152 2.358 67
-4.0479999 -1.0140001 2.4719999 66
-4.0469999 -0.86299998 2.5940001 66
-4.0469999 -1.373 2.2590001 69
-4.052 -1.251 2.3710001 69
-4.0430002 -1.108 2.4790001 66
-4.053 -0.95599997 2.6040001 64
-3.9619999 -1.448 2.23 116
-4.0469999 -1.351 2.3840001 71
-4.0510001 -1.2079999 2.497 64
-4.053 -1.049 2.612 68
-3.9519999 -1.55 2.2449999 97
-3.9630001 -1.424 2.352 79
-4.046 -1.306 2.5079999 67
0 0 0 50
-3.9619999 -1.661 2.273 111
-3.957 -1.525 2.368 98
-4.026 -1.398 2.51 66
-4.0089998 -1.226 2.6029999 65
-3.9690001 -1.773 2.3010001 88
-3.9519999 -1.627 2.385 93
-4.0440001 -1.507 2.5369999 64
-3.9389999 -1.299 2.569 58
-4.0489998 -1.923 2.375 65
-3.96 -1.7359999 2.4119999 86
-4.0500002 -1.612 2.559 66
-3.898 -1.38 2.5539999 54
-4.0419998 -2.0350001 2.3989999 64
-4.0469999 -1.885 2.49 64
-4.0440001 -1.714 2.575 64
-3.8970001 -1.477 2.5680001 63
-4.0409999 -2.1530001 2.4289999 66
-4.039 -1.994 2.51 65
-4.0240002 -1.813 2.5829999 64
-3.8940001 -1.573 2.5810001 71
-4.0409999 -2.2750001 2.461 64
-4.0440001 -2.1110001 2.5420001 63
-3.947 -1.885 2.556 56
-3.9949999 -1.717 2.665 71
-4.0489998 -2.404 2.5020001 65
-4.0440001 -2.23 2.572 65
-3.9089999 -1.975 2.556 56
-4.0539999 -1.848 2.723 71
-4.0409999 -2.527 2.5339999 62
-3.967 -2.306 2.5550001 57
-3.8640001 -2.062 2.552 71
-4.0359998 -1.948 2.7320001 76
-4.0479999 -2.6619999 2.5780001 62
-3.9000001 -2.3870001 2.5450001 58
-4.046 -2.276 2.701 67
-4.0100002 -2.0450001 2.737 73
-3.928 -2.714 2.5439999 54
-3.885 -2.5 2.5699999 72
-4.046 -2.3959999 2.7320001 74
-3.9719999 -2.1370001 2.734 70
-3.892 -2.8239999 2.5639999 35
-4.039 -2.7290001 2.7119999 71
-3.994 -2.487 2.7290001 59
-3.934 -2.2290001 2.733 71
-3.7820001 -2.878 2.536 34
-3.96 -2.809 2.7 77
-3.948 -2.582 2.7320001 72
-3.8929999 -2.322 2.733 71
-3.615 -2.8840001 2.471 42
-3.6689999 -2.7290001 2.5420001 50
-3.8870001 -2.668 2.7260001 74
-3.8529999 -2.414 2.733 57
-3.444 -2.8789999 2.4000001 46
-3.632 -2.8299999 2.559 44
-3.8399999 -2.7639999 2.7309999 69
-3.8069999 -2.5039999 2.7320001 68
-3.289 -2.8789999 2.3399999 46
-3.536 -2.8859999 2.536 46
-3.7219999 -2.8069999 2.687 63
-3.757 -2.592 2.727 70
-3.1440001 -2.8800001 2.2850001 48
-3.378 -2.8859999 2.4690001 46
-3.4630001 -2.734 2.54 48
-3.707 -2.681 2.7260001 56
-3.0009999 -2.878 2.2309999 50
-3.224 -2.882 2.402 44
0 0 0 50
