# .PCD v0.7 - Point Cloud Data file format
VERSION 0.7
FIELDS x y z intensity
SIZE 4 4 4 4
TYPE F F F F
COUNT 1 1 1 1
WIDTH 1690
HEIGHT 1
VIEWPOINT 0 0 0 1 0 0 0
POINTS 1690
DATA ascii
-0.96399999 2.293 2.7820001 89
-1.029 2.1700001 2.7750001 94
-0.87300003 2.4960001 2.7920001 94
-0.94599998 2.388 2.786 89
-1.01 2.26 2.7709999 95
-1.068 2.1289999 2.7590001 116
-0.93400002 2.4879999 2.796 93
-1.002 2.3710001 2.7880001 95
-1.053 2.223 2.7550001 111
-1.1160001 2.108 2.7709999 59
-0.99299997 2.4749999 2.7969999 88
-1.0549999 2.349 2.7850001 96
-1.101 2.198 2.756 62
-1.159 2.0769999 2.7720001 94
-1.051 2.4560001 2.7920001 87
-1.11 2.3310001 2.789 92
-1.152 2.177 2.763 59
-1.192 2.0309999 2.7520001 94
-1.112 2.444 2.7980001 88
-1.164 2.3110001 2.7909999 87
-1.193 2.1389999 2.7490001 98
-1.25 2.026 2.79 86
-1.171 2.427 2.799 88
-1.212 2.276 2.779 98
-1.255 2.138 2.7839999 88
-1.289 1.99 2.786 89
-1.229 2.405 2.7969999 88
-1.2690001 2.26 2.79 95
-1.299 2.105 2.78 87
-1.3279999 1.955 2.786 85
-1.288 2.385 2.799 81
-1.3200001 2.233 2.7880001 87
-1.344 2.0739999 2.78 86
-1.3660001 1.92 2.7850001 92
-1.344 2.359 2.7939999 83
-1.37 2.2030001 2.7850001 88
-1.39 2.0450001 2.783 81
-1.403 1.882 2.7820001 79
-1.399 2.3310001 2.79 83
-1.4220001 2.177 2.7880001 92
-1.433 2.0109999 2.7809999 86
-1.438 1.845 2.78 85
-1.459 2.309 2.7950001 83
-1.472 2.1459999 2.786 94
-1.474 1.974 2.777 89
-1.474 1.808 2.78 85
-1.5140001 2.28 2.7920001 82
-1.52 2.1129999 2.7850001 94
-1.52 1.9450001 2.7839999 89
-1.5089999 1.771 2.7809999 84
-1.567 2.247 2.7869999 82
-1.5700001 2.082 2.786 98
-1.558 1.905 2.7780001 94
-1.544 1.735 2.783 82
-1.631 2.2279999 2.802 96
-1.617 2.0480001 2.7850001 99
-1.598 1.87 2.7780001 88
-1.577 1.697 2.783 86
-1.6849999 2.1949999 2.8 97
-1.666 2.0150001 2.7869999 95
-1.638 1.8329999 2.779 86
-1.609 1.658 2.783 84
-1.738 2.1600001 2.7980001 94
-1.712 1.978 2.7850001 94
-1.678 1.796 2.779 90
-1.64 1.618 2.7820001 89
-1.793 2.1270001 2.8 98
-1.756 1.939 2.783 98
-1.716 1.758 2.779 82
-1.671 1.579 2.7839999 87
-1.844 2.0880001 2.796 93
-1.802 1.902 2.7839999 92
-1.752 1.7180001 2.779 83
-1.698 1.5369999 2.78 85
-1.897 2.0510001 2.7969999 91
-1.85 1.868 2.7909999 91
-1.789 1.678 2.779 83
-1.726 1.4960001 2.78 89
-1.951 2.0139999 2.8010001 46
-1.888 1.822 2.783 96
-1.822 1.636 2.776 85
-1.7539999 1.456 2.7809999 92
-2.003 1.974 2.802 96
-1.9299999 1.78 2.7820001 95
-1.859 1.597 2.78 82
-1.781 1.415 2.7820001 89
-2.0380001 1.92 2.7839999 98
-1.974 1.7410001 2.786 95
-1.8890001 1.552 2.7750001 83
-1.803 1.37 2.776 95
-1.962 1.7640001 2.6170001 149
-2.01 1.694 2.779 93
-1.9220001 1.51 2.776 83
-1.824 1.326 2.7709999 90
-1.977 1.697 2.579 45
-2.0139999 1.6210001 2.7320001 150
-1.955 1.467 2.7780001 89
-1.853 1.288 2.7780001 96
-2.1199999 1.7359999 2.7060001 150
-1.969 1.513 2.6210001 150
-1.985 1.423 2.777 83
-1.87 1.242 2.7709999 89
-2.2309999 1.743 2.79 94
-1.976 1.449 2.585 74
-2.01 1.376 2.7720001 89
-1.896 1.201 2.776 86
-2.2739999 1.694 2.789 96
-2.0350001 1.423 2.6170001 150
-2.0090001 1.312 2.7320001 150
-1.913 1.1569999 2.7720001 81
-2.319 1.645 2.7909999 89
-2.164 1.442 2.7390001 150
-1.983 1.234 2.661 150
-1.9349999 1.115 2.7750001 91
-2.359 1.5930001 2.789 91
-2.2290001 1.414 2.7780001 94
-1.9630001 1.163 2.6010001 92
-1.956 1.072 2.777 91
-2.3989999 1.54 2.7880001 95
-2.2620001 1.365 2.779 90
-1.973 1.1109999 2.582 49
-1.966 1.024 2.7650001 53
-2.4349999 1.485 2.7839999 91
-2.2939999 1.314 2.779 92
-2.003 1.071 2.5929999 93
-1.9859999 0.98199999 2.77 93
-2.48 1.434 2.7920001 90
-2.319 1.26 2.773 100
-2.0780001 1.054 2.6600001 150
-2.003 0.93900001 2.77 93
-2.5139999 1.378 2.789 90
-2.348 1.2079999 2.7720001 99
-2.0880001 1.002 2.6470001 144
-2.01 0.89099997 2.7590001 107
-2.5439999 1.318 2.783 89
-2.3829999 1.159 2.7809999 92
-2.1949999 0.995 2.7550001 145
-2.006 0.83899999 2.733 148
-2.5810001 1.262 2.786 88
-2.4059999 1.104 2.7750001 93
-2.224 0.95099998 2.767 85
-2 0.78799999 2.707 150
-2.612 1.204 2.786 88
-2.4230001 1.046 2.766 89
-2.2460001 0.903 2.77 90
-1.989 0.736 2.675 150
-2.6400001 1.142 2.7820001 89
-2.454 0.995 2.7739999 91
-2.2620001 0.85299999 2.7679999 84
-1.972 0.68300003 2.6359999 143
-2.674 1.084 2.7869999 98
-2.4760001 0.94 2.7739999 93
-2.276 0.80199999 2.7650001 79
-1.977 0.639 2.6289999 112
-2.6989999 1.022 2.7850001 97
-2.497 0.884 2.7720001 90
-2.29 0.75099999 2.7620001 87
-1.972 0.59200001 2.6099999 88
-2.7190001 0.958 2.779 88
-2.513 0.82599998 2.7679999 102
-2.3039999 0.70099998 2.7609999 83
-1.9680001 0.54699999 2.592 76
-2.7479999 0.89700001 2.783 90
-2.53 0.76899999 2.766 96
-2.316 0.64999998 2.76 85
-1.975 0.505 2.5899999 72
-2.77 0.83399999 2.783 93
-2.5469999 0.71200001 2.7650001 96
-2.3310001 0.60000002 2.763 83
-1.9910001 0.465 2.602 79
0 0 0 0
-2.5639999 0.65499997 2.766 102
-2.342 0.54900002 2.7620001 82
-1.9960001 0.42300001 2.5999999 88
0 0 0 0
-2.576 0.597 2.7639999 94
-2.3510001 0.498 2.76 85
-2.0109999 0.382 2.6110001 96
-1.527 0.34599999 1.502 2
-2.5880001 0.53899997 2.7620001 91
-2.362 0.447 2.763 87
-2.0220001 0.34099999 2.618 107
-1.531 0.30899999 1.497 2
-2.6010001 0.48100001 2.7639999 99
-2.368 0.39500001 2.76 84
-2.013 0.29699999 2.6010001 68
-1.557 0.27700001 1.515 0
-2.612 0.42199999 2.7639999 98
-2.3740001 0.34400001 2.7579999 85
-2.0309999 0.257 2.619 142
-2.8640001 0.44100001 2.7750001 90
-2.6170001 0.36300001 2.76 92
-2.382 0.292 2.7609999 85
-2.0409999 0.21600001 2.6289999 133
-2.8710001 0.37400001 2.7709999 83
-2.628 0.30399999 2.763 95
-2.385 0.23999999 2.7590001 86
-2.04 0.17299999 2.625 138
-2.885 0.308 2.776 99
-2.632 0.245 2.7620001 94
-2.3889999 0.189 2.76 89
-2.0539999 0.132 2.6400001 77
-2.8829999 0.23999999 2.767 45
-2.632 0.185 2.757 99
-2.3929999 0.13699999 2.76 88
-2.0580001 0.090000004 2.6440001 143
-2.8889999 0.17299999 2.7679999 86
-2.6389999 0.126 2.7609999 95
-2.3940001 0.086000003 2.76 89
-2 0.046 2.5699999 33
-2.9000001 0.106 2.7750001 100
-2.638 0.067000002 2.757 99
-2.3900001 0.034000002 2.7550001 95
-2.0580001 0.0049999999 2.645 150
-2.898 0.039000001 2.7709999 92
-2.638 0.0080000004 2.757 99
-2.392 -0.017000001 2.7579999 91
-2.052 -0.035999998 2.6389999 150
-2.895 -0.028000001 2.7690001 95
-2.638 -0.050999999 2.757 99
-2.3900001 -0.068000004 2.757 88
-2.052 -0.078000002 2.641 150
-2.892 -0.094999999 2.767 89
-2.632 -0.11 2.7539999 95
-2.385 -0.12 2.7539999 90
-2.036 -0.119 2.625 133
-2.8900001 -0.162 2.7679999 98
-2.6270001 -0.169 2.753 107
-2.3829999 -0.171 2.756 97
-2.036 -0.161 2.6289999 127
-2.881 -0.229 2.7650001 88
-2.625 -0.228 2.756 94
-2.378 -0.222 2.756 95
-2.026 -0.20299999 2.6210001 117
-2.875 -0.296 2.766 93
-2.6140001 -0.28600001 2.7509999 100
-2.3699999 -0.273 2.7539999 87
-2.007 -0.242 2.6029999 112
-2.862 -0.36199999 2.7620001 90
-2.605 -0.34400001 2.7509999 100
-2.362 -0.324 2.753 91
-1.998 -0.28299999 2.598 98
-2.8529999 -0.428 2.7639999 92
-2.6010001 -0.40400001 2.756 95
-2.3559999 -0.375 2.7550001 89
-1.9809999 -0.322 2.5840001 82
-2.823 -0.491 2.7460001 112
-2.5810001 -0.46000001 2.747 106
-2.342 -0.42500001 2.75 86
-1.9809999 -0.36300001 2.5929999 89
-2.8010001 -0.55500001 2.7379999 125
-2.575 -0.51899999 2.7520001 95
-2.3340001 -0.47499999 2.7520001 86
-1.976 -0.405 2.5969999 94
-2.789 -0.62 2.7420001 120
-2.559 -0.57499999 2.75 107
-2.319 -0.52399999 2.747 89
-1.966 -0.44499999 2.5940001 95
-2.7739999 -0.685 2.7449999 119
-2.5409999 -0.63099998 2.7460001 97
-2.3050001 -0.57300001 2.744 84
-1.966 -0.48699999 2.6059999 109
-2.757 -0.74800003 2.7460001 116
-2.523 -0.68699998 2.7449999 98
-2.2939999 -0.62300003 2.7479999 91
-1.982 -0.53399998 2.6400001 150
-2.744 -0.81300002 2.753 112
-2.5079999 -0.74400002 2.7479999 100
-2.2809999 -0.67199999 2.7490001 87
-1.979 -0.57700002 2.6500001 150
-2.724 -0.87699997 2.756 104
-2.4879999 -0.79900002 2.7460001 95
-2.2620001 -0.72000003 2.7449999 88
-1.977 -0.62099999 2.6619999 150
-2.6989999 -0.93800002 2.756 97
-2.4660001 -0.85299999 2.744 93
-2.25 -0.76999998 2.75 88
-1.99 -0.67000002 2.6960001 150
-2.6689999 -0.99800003 2.7509999 93
-2.4449999 -0.90700001 2.7449999 95
-2.2260001 -0.815 2.7409999 93
-1.995 -0.71700001 2.72 124
-2.645 -1.059 2.7539999 93
-2.4189999 -0.95999998 2.7409999 93
-2.2019999 -0.861 2.7349999 121
-1.999 -0.76499999 2.743 103
-2.615 -1.118 2.7520001 100
0 0 0 50
-2.1689999 -0.90200001 2.7160001 150
-1.989 -0.80900002 2.75 85
-2.582 -1.175 2.75 93
-2.3729999 -1.066 2.744 97
-2.1240001 -0.93699998 2.6849999 150
-1.973 -0.85000002 2.7490001 85
-2.5550001 -1.235 2.7539999 100
-2.3429999 -1.117 2.74 95
-1.998 -0.93300003 2.55 50
-1.96 -0.89200002 2.753 85
-2.516 -1.289 2.7490001 100
-2.3169999 -1.168 2.7409999 89
-1.999 -0.986 2.5780001 113
-1.947 -0.935 2.757 84
-2.4790001 -1.3430001 2.7449999 107
-2.29 -1.22 2.744 99
-1.969 -1.025 2.5669999 80
-1.928 -0.97500002 2.756 59
-2.444 -1.397 2.7460001 100
-2.257 -1.268 2.7409999 102
-1.957 -1.072 2.5799999 118
-1.909 -1.015 2.7550001 82
-2.405 -1.45 2.744 91
-2.227 -1.317 2.7409999 100
-1.976 -1.1390001 2.6370001 150
-1.886 -1.053 2.7479999 83
-2.3629999 -1.5 2.74 96
-2.178 -1.354 2.72 150
-1.993 -1.206 2.694 150
-1.865 -1.092 2.747 83
-2.3310001 -1.556 2.7490001 97
-2.0650001 -1.348 2.618 150
-1.994 -1.266 2.7309999 98
-1.844 -1.131 2.7449999 83
-2.2780001 -1.597 2.734 89
-1.98 -1.357 2.5510001 73
-1.973 -1.313 2.74 89
-1.824 -1.171 2.7460001 80
-2.2360001 -1.645 2.734 84
-1.964 -1.411 2.572 142
-1.9400001 -1.352 2.733 98
-1.8 -1.209 2.744 87
-2.187 -1.688 2.7260001 132
-1.9680001 -1.4809999 2.6229999 150
-1.91 -1.393 2.733 94
-1.78 -1.25 2.747 81
-2.0090001 -1.626 2.556 62
-2.007 -1.581 2.724 104
-1.885 -1.437 2.7390001 87
-1.7539999 -1.286 2.7420001 78
-1.959 -1.661 2.546 75
-1.979 -1.632 2.7379999 107
-1.855 -1.478 2.74 94
-1.727 -1.322 2.7379999 90
-1.9630001 -1.743 2.608 56
-1.937 -1.671 2.7349999 100
-1.816 -1.512 2.73 97
-1.707 -1.363 2.7449999 89
-2.01 -1.869 2.734 99
-1.896 -1.711 2.733 79
-1.789 -1.556 2.7390001 90
-1.678 -1.399 2.7409999 88
-1.962 -1.909 2.733 87
-1.858 -1.752 2.7360001 95
-1.751 -1.59 2.7320001 94
-1.654 -1.438 2.743 86
-1.914 -1.95 2.734 90
-1.813 -1.788 2.7309999 98
-1.717 -1.627 2.7309999 93
-1.627 -1.475 2.744 84
-1.863 -1.987 2.733 97
-1.77 -1.824 2.73 94
-1.681 -1.664 2.7309999 94
-1.598 -1.51 2.7420001 84
-1.809 -2.02 2.7279999 97
-1.73 -1.864 2.7349999 99
-1.646 -1.7 2.7309999 96
-1.568 -1.545 2.7390001 84
-1.76 -2.0569999 2.7309999 94
-1.681 -1.893 2.7260001 93
-1.607 -1.733 2.727 89
-1.5420001 -1.584 2.7449999 84
-1.704 -2.086 2.724 91
-1.637 -1.928 2.7279999 90
-1.575 -1.774 2.737 89
-1.511 -1.617 2.743 86
-1.651 -2.1170001 2.723 96
-1.5930001 -1.962 2.7290001 89
-1.531 -1.801 2.7260001 89
-1.475 -1.647 2.734 82
-1.6 -2.151 2.727 99
-1.5470001 -1.994 2.7290001 92
-1.493 -1.834 2.7260001 91
-1.449 -1.687 2.743 88
-1.546 -2.1800001 2.7260001 95
-1.501 -2.026 2.7309999 88
-1.454 -1.867 2.727 88
-1.414 -1.7180001 2.7379999 87
-1.49 -2.2049999 2.723 88
-1.4529999 -2.0550001 2.7290001 98
-1.416 -1.901 2.7320001 81
-1.3789999 -1.749 2.7349999 89
-1.437 -2.234 2.7260001 92
-1.406 -2.0840001 2.7309999 96
-1.373 -1.928 2.7260001 86
-1.344 -1.78 2.733 89
-1.381 -2.2579999 2.724 93
-1.357 -2.1099999 2.7279999 92
-1.332 -1.959 2.7279999 94
-1.311 -1.814 2.7360001 84
-1.322 -2.2739999 2.7160001 90
-1.309 -2.1370001 2.73 97
-1.289 -1.9859999 2.7249999 89
-1.273 -1.842 2.73 89
-1.268 -2.3 2.72 90
-1.258 -2.1589999 2.7260001 90
-1.245 -2.0109999 2.721 85
-1.239 -1.876 2.734 93
-1.212 -2.3199999 2.72 88
-1.209 -2.1849999 2.7279999 90
-1.2029999 -2.0409999 2.724 89
-1.2029999 -1.9069999 2.7360001 93
-1.1569999 -2.342 2.724 86
-1.16 -2.2090001 2.73 92
-1.1619999 -2.072 2.7309999 77
-1.1619999 -1.933 2.73 92
-1.1 -2.358 2.7219999 84
-1.108 -2.2279999 2.727 87
-1.114 -2.0899999 2.721 82
-1.125 -1.964 2.7320001 96
-1.0420001 -2.3710001 2.7179999 92
-1.0549999 -2.243 2.721 82
-1.0700001 -2.115 2.723 88
-1.087 -1.993 2.733 87
-0.98400003 -2.3829999 2.7149999 83
-1.006 -2.266 2.7249999 87
-1.024 -2.1389999 2.7219999 87
-1.046 -2.02 2.7320001 90
-0.92799997 -2.398 2.7160001 84
-0.954 -2.283 2.724 85
-0.97799999 -2.161 2.7219999 88
-1.005 -2.0450001 2.7290001 90
-0.87099999 -2.4100001 2.717 87
-0.89999998 -2.293 2.717 87
-0.93199998 -2.1819999 2.721 86
-0.96499997 -2.075 2.733 87
-0.81400001 -2.4189999 2.7149999 90
-0.85000002 -2.3139999 2.723 92
-0.884 -2.2 2.7179999 87
-0.921 -2.096 2.7260001 84
-0.75800002 -2.4319999 2.72 90
-0.79699999 -2.3239999 2.7179999 87
-0.83600003 -2.2190001 2.7179999 83
-0.88 -2.1240001 2.7309999 84
-0.70099998 -2.438 2.7179999 85
-0.74299997 -2.335 2.7149999 97
-0.78899997 -2.237 2.717 81
-0.83600003 -2.1470001 2.7290001 88
-0.64399999 -2.4419999 2.7160001 84
-0.69300002 -2.352 2.7219999 87
-0.741 -2.256 2.7179999 85
-0.792 -2.1689999 2.727 90
-0.588 -2.448 2.717 89
-0.63999999 -2.3629999 2.7219999 83
-0.69199997 -2.273 2.7179999 88
-0.74599999 -2.1889999 2.724 90
-0.53200001 -2.45 2.7160001 81
-0.58700001 -2.369 2.717 86
-0.64300001 -2.2869999 2.717 85
-0.70099998 -2.2130001 2.7260001 93
-0.47499999 -2.4519999 2.7160001 84
-0.53399998 -2.3789999 2.7190001 88
-0.59399998 -2.3010001 2.7160001 85
-0.65499997 -2.2320001 2.724 94
-0.41999999 -2.4560001 2.7190001 90
-0.48100001 -2.3859999 2.7190001 92
-0.54400003 -2.313 2.714 81
-0.60900003 -2.2539999 2.727 86
-0.36500001 -2.4579999 2.7219999 82
-0.428 -2.391 2.7190001 86
-0.49399999 -2.3269999 2.7160001 87
-0.56199998 -2.273 2.727 89
-0.30899999 -2.4489999 2.714 86
-0.37599999 -2.4000001 2.723 89
-0.44400001 -2.3380001 2.7149999 87
-0.514 -2.289 2.723 82
0 0 0 50
-0.324 -2.4030001 2.723 87
-0.39300001 -2.345 2.7119999 81
-0.465 -2.306 2.724 86
-0.199 -2.4389999 2.711 79
-0.27000001 -2.401 2.7179999 80
-0.34200001 -2.3559999 2.714 87
-0.417 -2.3239999 2.7260001 92
-0.145 -2.431 2.7079999 79
-0.21799999 -2.4070001 2.723 88
-0.292 -2.372 2.723 76
-0.36700001 -2.3380001 2.7249999 87
-0.092 -2.431 2.7149999 87
-0.16500001 -2.404 2.7190001 78
-0.23999999 -2.375 2.7179999 81
-0.31799999 -2.355 2.727 83
-0.037999999 -2.4189999 2.7119999 82
-0.113 -2.3989999 2.7149999 80
-0.189 -2.3829999 2.72 77
-0.26699999 -2.368 2.727 86
0.013 -2.415 2.7160001 82
-0.061000001 -2.404 2.723 81
-0.13699999 -2.3859999 2.7179999 80
-0.215 -2.3759999 2.7219999 87
0.066 -2.4070001 2.7190001 86
-0.0080000004 -2.3970001 2.7190001 78
-0.086000003 -2.3900001 2.7179999 76
-0.164 -2.388 2.723 80
0.118 -2.3929999 2.7160001 88
0.041999999 -2.3929999 2.7190001 82
-0.034000002 -2.3929999 2.7179999 78
-0.112 -2.3970001 2.7219999 81
0.169 -2.382 2.717 90
0.093999997 -2.3889999 2.721 82
0.017000001 -2.398 2.7219999 82
-0.059999999 -2.401 2.7160001 81
0.22 -2.368 2.717 88
0.146 -2.382 2.72 88
0.068999998 -2.3900001 2.7130001 75
-0.0070000002 -2.4089999 2.717 81
0.27000001 -2.355 2.7190001 84
0.197 -2.375 2.72 83
0.122 -2.398 2.7219999 83
0.045000002 -2.414 2.7149999 85
0.31900001 -2.3340001 2.7119999 94
0.248 -2.368 2.7219999 84
0.17399999 -2.391 2.7160001 78
0.098999999 -2.4200001 2.7160001 95
0.36700001 -2.3180001 2.7119999 85
0.29800001 -2.3570001 2.721 86
0.226 -2.3889999 2.717 74
0.153 -2.428 2.72 84
0.41600001 -2.303 2.7160001 83
0.347 -2.339 2.7130001 94
0.278 -2.3870001 2.7190001 79
0.207 -2.4319999 2.721 84
0.46399999 -2.2839999 2.7149999 82
0.398 -2.3340001 2.72 85
0.33000001 -2.381 2.7179999 81
0.26100001 -2.4360001 2.724 84
0.51099998 -2.266 2.7160001 84
0.44800001 -2.3239999 2.724 86
0.382 -2.372 2.7149999 76
0.31600001 -2.434 2.721 82
0.55800003 -2.2479999 2.7179999 81
0.49599999 -2.303 2.7160001 84
0.435 -2.3699999 2.7219999 79
0.37099999 -2.434 2.7219999 87
0.602 -2.2219999 2.7130001 87
0.54500002 -2.29 2.7179999 94
0.486 -2.3570001 2.7160001 81
0.426 -2.4300001 2.72 80
0.648 -2.2030001 2.7160001 85
0.59299999 -2.273 2.7160001 91
0.53799999 -2.348 2.7160001 77
0.48100001 -2.427 2.72 85
0.69199997 -2.1800001 2.7160001 86
0.64099997 -2.256 2.717 85
0.58999997 -2.342 2.7219999 78
0.53600001 -2.421 2.7179999 88
0.73500001 -2.1559999 2.7149999 83
0.68900001 -2.2409999 2.7190001 89
0.64099997 -2.3280001 2.72 79
0.59100002 -2.4119999 2.7149999 86
0.778 -2.132 2.7149999 86
0.736 -2.223 2.72 86
0.69199997 -2.312 2.7160001 78
0.64700001 -2.4070001 2.717 83
0.82099998 -2.1110001 2.72 85
0.78200001 -2.201 2.717 88
0.745 -2.3039999 2.724 79
0.70200002 -2.3970001 2.7160001 87
0.86199999 -2.0840001 2.7179999 90
0.829 -2.184 2.721 82
0.79400003 -2.286 2.72 82
0.75700003 -2.385 2.7130001 91
0.90399998 -2.062 2.724 95
0.87400001 -2.161 2.721 86
0.84299999 -2.2650001 2.7149999 81
0.81400001 -2.3789999 2.7190001 91
0.94199997 -2.0309999 2.7190001 86
0.92000002 -2.1400001 2.7219999 83
0.89399999 -2.2490001 2.717 81
0.86699998 -2.3599999 2.7119999 83
0.98000002 -2.0020001 2.7160001 88
0.96499997 -2.1199999 2.7260001 90
0.94599998 -2.234 2.7219999 78
0.92400002 -2.3499999 2.7160001 87
1.02 -1.976 2.72 87
1.008 -2.0929999 2.723 88
0.99299997 -2.21 2.7160001 77
0.98100001 -2.3369999 2.7190001 96
1.057 -1.947 2.7190001 84
1.051 -2.0669999 2.721 83
1.045 -2.197 2.7249999 83
1.035 -2.3199999 2.7190001 95
1.094 -1.9170001 2.7190001 88
1.095 -2.0450001 2.7260001 94
1.092 -2.1700001 2.7190001 79
1.089 -2.299 2.7160001 93
1.132 -1.891 2.724 83
1.138 -2.0209999 2.7290001 87
1.141 -2.148 2.721 81
1.1440001 -2.2809999 2.7179999 86
1.168 -1.8609999 2.7249999 83
1.177 -1.988 2.7219999 84
1.1900001 -2.1259999 2.724 85
1.198 -2.26 2.717 85
1.202 -1.829 2.724 67
1.22 -1.964 2.727 82
1.2359999 -2.099 2.721 80
1.253 -2.2379999 2.7179999 90
1.238 -1.802 2.73 78
1.2589999 -1.934 2.7249999 87
1.283 -2.073 2.723 77
1.307 -2.217 2.721 90
1.272 -1.77 2.73 76
1.299 -1.905 2.727 87
1.33 -2.0469999 2.723 87
1.36 -2.191 2.72 88
1.302 -1.7359999 2.727 78
1.337 -1.872 2.723 92
1.375 -2.017 2.7219999 81
1.4119999 -2.1630001 2.717 91
1.336 -1.706 2.7320001 77
1.378 -1.845 2.7290001 88
1.42 -1.987 2.721 78
1.467 -2.1389999 2.7219999 91
1.367 -1.6720001 2.7309999 78
1.413 -1.8099999 2.7249999 91
1.465 -1.957 2.7219999 82
1.517 -2.108 2.7190001 93
1.3940001 -1.636 2.727 69
1.451 -1.779 2.727 93
1.508 -1.925 2.721 84
1.568 -2.0769999 2.7190001 95
1.427 -1.6059999 2.734 75
1.4859999 -1.745 2.7260001 92
1.551 -1.892 2.72 83
1.619 -2.046 2.72 91
1.457 -1.573 2.7360001 74
1.522 -1.71 2.7249999 88
1.5930001 -1.859 2.721 83
1.67 -2.0150001 2.7219999 94
1.485 -1.5369999 2.7349999 68
1.558 -1.678 2.7279999 94
1.636 -1.826 2.723 84
1.716 -1.976 2.717 97
1.5140001 -1.5039999 2.7390001 71
1.591 -1.641 2.727 85
1.674 -1.7869999 2.7179999 84
1.661 -1.827 2.5580001 150
1.539 -1.4680001 2.737 67
1.627 -1.608 2.7320001 93
1.706 -1.7410001 2.704 118
1.719 -1.806 2.5780001 150
1.5650001 -1.432 2.7379999 65
1.661 -1.573 2.733 95
1.655 -1.6160001 2.5650001 113
1.8279999 -1.834 2.671 150
1.589 -1.395 2.7360001 73
1.693 -1.536 2.734 92
1.707 -1.594 2.5880001 150
1.9069999 -1.8279999 2.721 118
1.615 -1.36 2.74 74
1.704 -1.4809999 2.7019999 142
1.744 -1.558 2.589 150
1.956 -1.791 2.7260001 97
1.6390001 -1.324 2.7409999 70
1.675 -1.3940001 2.6099999 150
1.8609999 -1.589 2.707 150
1.999 -1.747 2.723 92
1.663 -1.288 2.7420001 69
1.6900001 -1.347 2.5910001 150
1.909 -1.559 2.7260001 84
2.0420001 -1.7029999 2.723 96
1.686 -1.251 2.743 70
1.7130001 -1.306 2.585 150
1.95 -1.521 2.733 91
2.0840001 -1.659 2.723 99
1.7029999 -1.211 2.7360001 76
1.763 -1.286 2.619 150
1.978 -1.473 2.724 83
2.1289999 -1.615 2.727 94
1.6950001 -1.153 2.6900001 138
1.8380001 -1.281 2.6919999 150
2.0050001 -1.425 2.7160001 84
2.171 -1.5700001 2.73 96
1.683 -1.095 2.6400001 150
1.891 -1.258 2.73 97
2.0469999 -1.388 2.7279999 77
2.2090001 -1.521 2.7279999 96
1.682 -1.0470001 2.6110001 150
1.92 -1.219 2.7349999 91
2.082 -1.345 2.733 86
2.247 -1.473 2.7279999 98
1.6799999 -0.99900001 2.5799999 98
1.944 -1.177 2.7349999 92
2.112 -1.298 2.7320001 84
2.2880001 -1.424 2.733 88
1.683 -0.954 2.559 74
1.964 -1.133 2.73 88
2.142 -1.252 2.7320001 89
2.3199999 -1.3710001 2.7290001 99
1.696 -0.917 2.553 56
1.9910001 -1.092 2.7349999 86
2.1689999 -1.204 2.73 86
2.3559999 -1.3200001 2.73 92
1.761 -0.90600002 2.628 150
2.016 -1.051 2.7390001 91
2.1960001 -1.155 2.7290001 93
2.395 -1.27 2.737 95
1.803 -0.88099998 2.6670001 150
2.0350001 -1.006 2.737 88
2.227 -1.109 2.7360001 84
2.4200001 -1.212 2.7290001 106
1.835 -0.85100001 2.6930001 150
2.0580001 -0.963 2.74 91
2.2479999 -1.058 2.73 90
2.438 -1.151 2.7149999 113
1.867 -0.81999999 2.717 130
2.0739999 -0.917 2.7349999 86
2.2720001 -1.007 2.7290001 88
2.4649999 -1.095 2.7130001 113
1.8940001 -0.787 2.7360001 86
2.0929999 -0.87199998 2.7360001 93
2.2980001 -0.958 2.7320001 88
2.494 -1.039 2.714 122
1.911 -0.74900001 2.7420001 73
2.1159999 -0.829 2.7420001 95
2.323 -0.90799999 2.7360001 86
2.52 -0.98199999 2.714 125
1.929 -0.71100003 2.7490001 64
2.131 -0.78299999 2.7409999 89
2.342 -0.85600001 2.734 87
2.543 -0.92400002 2.7119999 126
1.944 -0.67199999 2.7539999 64
2.1459999 -0.73699999 2.7390001 93
2.3640001 -0.80500001 2.7360001 96
2.5650001 -0.86500001 2.711 125
1.9529999 -0.63 2.7490001 63
2.1630001 -0.69099998 2.7420001 97
2.3840001 -0.75300002 2.7390001 98
2.589 -0.80699998 2.7130001 136
1.9680001 -0.59100002 2.7539999 63
2.1789999 -0.64499998 2.743 95
2.398 -0.69800001 2.734 97
2.6140001 -0.74800003 2.717 129
1.978 -0.551 2.7550001 64
2.1889999 -0.597 2.7390001 91
2.414 -0.64499998 2.734 100
2.632 -0.68800002 2.7160001 129
1.985 -0.509 2.7509999 63
2.2049999 -0.551 2.743 98
2.4219999 -0.58899999 2.7260001 98
2.6429999 -0.625 2.71 140
1.998 -0.47 2.757 63
2.214 -0.50300002 2.7409999 89
2.4349999 -0.53500003 2.7249999 94
2.661 -0.565 2.7119999 137
2.0020001 -0.428 2.7509999 60
2.2249999 -0.456 2.7409999 90
2.4449999 -0.47999999 2.723 94
2.6819999 -0.50400001 2.7190001 127
2.0090001 -0.38600001 2.7490001 63
2.237 -0.40799999 2.744 95
2.4749999 -0.428 2.743 89
2.7160001 -0.44600001 2.74 87
2.0179999 -0.34599999 2.7520001 63
2.244 -0.36000001 2.7420001 94
2.4809999 -0.37200001 2.7390001 84
2.7290001 -0.38299999 2.7420001 95
2.0250001 -0.30399999 2.7520001 62
2.253 -0.31200001 2.744 94
2.494 -0.317 2.744 88
2.7379999 -0.31900001 2.7409999 94
2.03 -0.26300001 2.7509999 61
2.26 -0.264 2.744 95
2.4990001 -0.26100001 2.7409999 87
2.7449999 -0.255 2.74 93
2.04 -0.222 2.757 64
2.2650001 -0.215 2.743 93
2.5020001 -0.205 2.737 88
2.763 -0.192 2.7520001 101
2.0439999 -0.18000001 2.756 56
2.2750001 -0.167 2.7479999 85
2.513 -0.149 2.744 94
2.7609999 -0.12800001 2.7449999 89
2.0469999 -0.138 2.7539999 60
2.2809999 -0.118 2.7509999 82
2.5150001 -0.092 2.7420001 88
2.7709999 -0.064000003 2.7509999 107
2.0510001 -0.096000001 2.756 62
2.2809999 -0.068999998 2.747 85
2.516 -0.035999998 2.7409999 86
2.7739999 0 2.753 102
2.056 -0.054000001 2.7579999 59
2.2820001 -0.02 2.747 86
2.5209999 0.02 2.7449999 88
2.776 0.064999998 2.756 98
2.0550001 -0.012 2.7550001 65
2.2880001 0.028999999 2.7520001 90
2.5220001 0.075999998 2.7460001 89
2.7720001 0.12899999 2.753 92
2.0580001 0.029999999 2.757 65
2.2869999 0.078000002 2.75 82
2.517 0.133 2.7420001 83
2.7720001 0.19400001 2.757 99
2.059 0.071999997 2.757 63
2.286 0.12800001 2.75 87
2.5139999 0.19 2.7420001 73
2.767 0.259 2.757 97
2.059 0.114 2.756 68
2.2869999 0.177 2.753 86
2.506 0.24600001 2.7379999 60
2.76 0.32300001 2.756 99
2.059 0.15700001 2.7579999 65
2.283 0.227 2.7520001 86
2.5039999 0.30199999 2.7409999 62
2.7579999 0.38800001 2.763 104
2.0580001 0.2 2.7579999 58
0 0 0 50
2.5020001 0.359 2.7460001 89
2.74 0.45100001 2.7550001 91
2.0569999 0.243 2.7590001 68
2.2750001 0.32600001 2.7520001 90
2.497 0.41600001 2.75 79
2.7279999 0.514 2.7550001 91
2.0580001 0.28600001 2.763 71
2.2709999 0.375 2.7539999 86
2.484 0.472 2.7460001 82
2.724 0.579 2.7639999 98
2.053 0.329 2.7609999 69
2.263 0.42500001 2.753 88
2.48 0.52899998 2.753 88
2.707 0.64200002 2.7620001 102
2.0480001 0.37200001 2.76 69
2.256 0.47400001 2.7539999 91
2.467 0.58499998 2.7520001 92
2.687 0.70300001 2.7579999 97
2.0469999 0.41600001 2.7650001 67
2.2490001 0.52399999 2.756 97
2.451 0.639 2.7490001 81
2.678 0.76800001 2.7679999 103
2.04 0.45899999 2.7639999 68
2.2360001 0.57200003 2.7520001 90
2.441 0.69599998 2.753 86
2.655 0.829 2.7639999 90
2.033 0.50199997 2.7620001 70
2.227 0.62199998 2.7539999 92
2.425 0.75 2.753 87
2.6340001 0.88999999 2.7650001 100
2.0280001 0.546 2.7650001 69
2.22 0.67199999 2.7609999 86
2.4070001 0.80500001 2.7520001 86
2.6159999 0.95200002 2.7690001 98
2.0190001 0.58899999 2.763 69
2.207 0.72100002 2.76 86
2.395 0.861 2.7590001 89
2.582 1.008 2.7579999 100
2.0090001 0.63200003 2.7609999 71
2.194 0.76999998 2.7609999 90
2.3740001 0.91399997 2.757 89
2.529 1.056 2.73 124
2.0050001 0.67699999 2.7679999 75
2.1789999 0.81800002 2.76 88
2.355 0.96799999 2.7590001 89
2.52 1.1210001 2.7490001 129
1.994 0.72100002 2.767 66
2.165 0.86799997 2.763 84
2.3340001 1.022 2.76 86
2.493 1.179 2.75 128
1.983 0.76499999 2.767 72
2.1470001 0.91500002 2.7620001 83
2.3099999 1.074 2.76 86
2.4549999 1.2309999 2.7409999 106
1.97 0.80800003 2.766 73
2.1300001 0.96399999 2.763 82
2.286 1.126 2.76 84
2.437 1.294 2.756 114
1.9579999 0.852 2.766 74
2.1099999 1.01 2.7609999 84
2.2609999 1.178 2.7609999 89
2.4159999 1.3559999 2.7690001 107
1.941 0.89399999 2.7620001 71
2.0929999 1.059 2.7639999 81
2.2360001 1.229 2.7620001 88
2.3859999 1.4119999 2.7739999 112
1.9299999 0.93900001 2.766 77
2.075 1.108 2.7690001 80
2.2079999 1.279 2.7620001 87
2.352 1.467 2.776 99
1.913 0.98199999 2.7639999 79
2.0539999 1.155 2.7690001 80
2.181 1.33 2.7650001 87
2.3139999 1.518 2.7750001 106
1.897 1.025 2.7639999 75
2.03 1.2 2.7679999 82
2.1489999 1.378 2.763 86
2.2739999 1.568 2.773 96
1.8839999 1.0700001 2.7679999 81
2.0039999 1.245 2.7650001 75
2.118 1.426 2.763 86
2.24 1.622 2.7780001 94
1.834 1.094 2.72 150
1.978 1.29 2.7639999 80
2.086 1.474 2.7639999 85
2.2 1.6720001 2.78 94
1.813 1.135 2.7160001 150
1.957 1.3380001 2.77 86
2.052 1.52 2.763 85
2.1559999 1.719 2.777 95
1.76 1.155 2.6659999 150
1.929 1.382 2.7679999 84
2.017 1.566 2.763 88
2.1140001 1.766 2.777 92
1.709 1.175 2.618 134
1.902 1.427 2.77 88
1.983 1.612 2.7650001 83
2.072 1.814 2.78 95
1.681 1.21 2.6059999 130
1.876 1.474 2.776 84
1.946 1.6569999 2.7650001 83
2.0190001 1.851 2.7690001 88
1.671 1.2589999 2.6240001 149
1.804 1.4809999 2.711 150
1.909 1.7 2.7650001 82
1.979 1.9 2.777 101
1.6440001 1.295 2.6159999 125
1.711 1.47 2.6159999 150
1.87 1.743 2.7650001 83
1.931 1.941 2.7750001 85
1.674 1.378 2.701 150
1.674 1.5039999 2.605 115
1.76 1.716 2.6589999 150
1.8789999 1.978 2.7690001 93
1.692 1.456 2.7709999 88
1.65 1.549 2.6159999 132
1.698 1.732 2.6229999 150
1.738 1.915 2.6289999 150
1.668 1.499 2.7739999 84
1.689 1.6569999 2.73 150
1.653 1.763 2.6140001 150
1.676 1.933 2.605 149
1.64 1.54 2.773 80
1.682 1.725 2.7739999 87
1.699 1.896 2.753 108
1.615 1.952 2.5840001 89
1.613 1.582 2.7750001 81
1.6440001 1.763 2.7709999 84
1.666 1.9450001 2.77 82
1.687 2.1370001 2.7809999 89
1.584 1.622 2.7750001 80
1.61 1.804 2.7750001 86
1.622 1.982 2.77 77
1.6339999 2.1700001 2.779 90
1.552 1.661 2.7720001 84
1.573 1.844 2.777 89
1.579 2.0209999 2.7739999 76
1.5829999 2.2049999 2.7809999 92
1.522 1.7029999 2.7739999 92
1.535 1.882 2.7780001 84
1.529 2.05 2.766 86
1.53 2.237 2.7820001 84
1.493 1.745 2.779 81
1.495 1.918 2.776 87
1.485 2.086 2.77 82
1.475 2.266 2.78 90
1.4579999 1.783 2.776 79
1.457 1.957 2.779 90
1.438 2.119 2.77 83
1.421 2.2950001 2.7809999 92
1.427 1.825 2.7820001 75
1.414 1.9910001 2.777 91
1.391 2.152 2.7709999 80
1.368 2.325 2.7839999 94
1.39 1.8609999 2.779 84
1.372 2.0250001 2.777 87
1.3430001 2.1849999 2.7739999 88
1.312 2.3510001 2.7839999 89
1.355 1.901 2.7809999 85
1.331 2.062 2.78 86
1.295 2.2160001 2.776 85
1.255 2.3740001 2.7820001 94
1.317 1.938 2.7809999 80
1.286 2.0929999 2.7780001 92
1.242 2.2409999 2.7709999 80
1.199 2.3989999 2.7839999 95
1.278 1.972 2.7780001 77
1.242 2.1259999 2.7780001 95
1.1950001 2.2739999 2.779 80
1.143 2.4230001 2.786 97
1.237 2.0050001 2.7739999 80
1.197 2.158 2.78 91
1.143 2.2969999 2.776 85
1.085 2.4389999 2.7809999 91
1.198 2.0420001 2.777 81
1.15 2.188 2.779 88
1.089 2.3180001 2.7720001 79
1.028 2.461 2.7839999 88
1.159 2.0810001 2.7820001 82
1.103 2.2149999 2.777 87
1.039 2.3469999 2.7780001 82
0.97100002 2.48 2.786 87
1.1160001 2.1129999 2.78 77
1.058 2.2490001 2.783 89
0.986 2.3699999 2.7780001 82
0.91299999 2.497 2.7869999 83
1.075 2.151 2.786 82
1.008 2.2739999 2.7809999 82
0.93199998 2.388 2.7750001 77
0.85699999 2.5150001 2.7909999 86
1.03 2.1830001 2.7850001 84
0.958 2.299 2.7780001 73
0.88 2.414 2.7809999 80
0.79799998 2.527 2.789 87
0.98400003 2.2130001 2.783 79
0.91000003 2.3280001 2.783 86
0.82599998 2.431 2.78 79
0.73900002 2.536 2.786 89
0.94 2.2460001 2.786 84
0.86000001 2.3540001 2.7850001 83
0.77100003 2.4460001 2.777 74
0.68099999 2.55 2.79 93
0.89300001 2.2780001 2.7880001 82
0.80699998 2.3729999 2.78 82
0.71600002 2.464 2.7780001 72
0.62099999 2.553 2.7839999 91
0.84399998 2.3039999 2.7850001 80
0.75800002 2.4030001 2.789 74
0.66100001 2.4790001 2.779 71
0.56300002 2.5599999 2.783 89
0.79699999 2.336 2.79 88
0.70499998 2.424 2.7880001 71
0.60500002 2.493 2.779 70
0.505 2.573 2.789 90
0.74599999 2.3629999 2.789 82
0.65100002 2.4400001 2.7839999 75
0.55000001 2.5079999 2.7809999 77
0.447 2.5799999 2.7920001 95
0.69499999 2.3889999 2.789 76
0.59799999 2.4619999 2.7869999 79
0.49399999 2.52 2.7820001 78
0.38800001 2.579 2.7869999 80
0.64399999 2.415 2.79 74
0.54299998 2.4790001 2.7869999 83
0.43700001 2.5280001 2.779 70
0.331 2.5840001 2.79 83
0.59100002 2.438 2.7880001 73
0.48800001 2.493 2.7839999 81
0.38100001 2.5420001 2.7850001 77
0.273 2.586 2.7909999 94
0.53799999 2.46 2.7880001 78
0.433 2.5109999 2.7869999 87
0.32499999 2.55 2.786 76
0.214 2.582 2.7869999 91
0.484 2.484 2.79 83
0.377 2.5239999 2.786 75
0.26800001 2.556 2.786 77
0.15700001 2.5869999 2.7939999 92
0.42899999 2.5050001 2.79 88
0.32100001 2.5380001 2.786 80
0.211 2.563 2.7880001 81
0.1 2.5810001 2.7920001 95
0.373 2.5239999 2.79 77
0.26499999 2.5550001 2.793 78
0.154 2.5639999 2.7850001 80
0.043000001 2.572 2.786 93
0.317 2.5450001 2.7920001 80
0.208 2.5610001 2.7880001 89
0.097000003 2.566 2.7850001 83
-0.013 2.5699999 2.7909999 93
0.25999999 2.562 2.793 85
0.15000001 2.5680001 2.7850001 88
0.039999999 2.5710001 2.789 81
-0.068999998 2.5639999 2.7909999 93
0.20200001 2.579 2.7939999 90
0.093000002 2.5799999 2.79 91
-0.016000001 2.5680001 2.786 86
-0.125 2.5469999 2.7809999 87
0.14300001 2.5940001 2.7950001 90
0.035 2.5840001 2.7869999 89
-0.072999999 2.562 2.7809999 73
-0.18099999 2.5450001 2.789 89
0.083999999 2.608 2.796 99
-0.023 2.589 2.7869999 88
-0.13 2.5699999 2.7920001 87
-0.236 2.5309999 2.786 91
0.024 2.618 2.7939999 95
-0.082000002 2.5999999 2.7950001 88
-0.18700001 2.5610001 2.7869999 84
-0.29100001 2.5220001 2.789 88
-0.035 2.631 2.7969999 90
-0.141 2.5999999 2.7920001 89
-0.244 2.5550001 2.786 83
-0.345 2.5109999 2.79 93
-0.096000001 2.6429999 2.8 84
-0.199 2.6010001 2.7909999 85
-0.301 2.553 2.7909999 83
-0.39899999 2.4990001 2.7920001 95
-0.15700001 2.6470001 2.796 89
-0.259 2.6070001 2.7980001 90
-0.35699999 2.5439999 2.789 80
-0.45199999 2.4809999 2.789 92
-0.22 2.658 2.802 88
-0.31799999 2.6010001 2.7939999 83
-0.41299999 2.5309999 2.7850001 82
-0.505 2.467 2.7909999 94
-0.28200001 2.661 2.8 94
-0.37799999 2.598 2.793 88
-0.46900001 2.5250001 2.79 79
-0.55599999 2.448 2.789 98
-0.345 2.6670001 2.803 84
-0.43700001 2.595 2.7939999 89
-0.52399999 2.5109999 2.7869999 83
-0.60799998 2.4289999 2.7880001 93
-0.40799999 2.671 2.8050001 78
-0.49700001 2.589 2.7950001 85
-0.579 2.4979999 2.786 79
-0.65899998 2.411 2.79 89
-0.47099999 2.6670001 2.8010001 83
-0.55500001 2.579 2.7909999 85
-0.63499999 2.4860001 2.7880001 84
-0.70899999 2.3889999 2.7880001 94
-0.53399998 2.6630001 2.7980001 88
-0.616 2.575 2.796 89
-0.68900001 2.471 2.7880001 84
-0.75700003 2.3640001 2.783 89
-0.59899998 2.661 2.799 82
-0.67500001 2.5639999 2.7950001 86
-0.74199998 2.448 2.7809999 87
-0.80699998 2.3429999 2.7839999 90
-0.66500002 2.6630001 2.8069999 90
-0.73500001 2.5539999 2.7969999 91
-0.79799998 2.437 2.7880001 83
-0.85500002 2.3199999 2.7850001 89
-0.72899997 2.6570001 2.8069999 81
-0.79500002 2.5469999 2.803 84
-0.85100001 2.418 2.7869999 83
-0.903 2.2969999 2.786 93
-0.79400003 2.651 2.809 88
-0.85299999 2.5280001 2.7969999 84
-0.90200001 2.3929999 2.7809999 76
-0.94999999 2.2709999 2.7850001 98
-0.85799998 2.6389999 2.8069999 91
-0.91000003 2.51 2.7950001 84
-0.95599997 2.3770001 2.7869999 81
-0.98799998 2.227 2.7620001 86
-0.92199999 2.625 2.8039999 91
-0.96899998 2.494 2.796 84
-1.006 2.3510001 2.7820001 88
-1.033 2.2 2.7620001 73
-0.98900002 2.619 2.812 94
-1.027 2.474 2.793 87
-1.058 2.3299999 2.7850001 89
-1.077 2.1730001 2.7620001 105
-1.052 2.602 2.809 95
0 0 0 50
-1.109 2.306 2.7850001 84
-1.128 2.1589999 2.7809999 86
-1.114 2.5810001 2.8039999 95
-1.1440001 2.4389999 2.8 79
-1.158 2.279 2.7820001 97
-1.171 2.1300001 2.78 126
-1.178 2.563 2.8039999 97
-1.198 2.4100001 2.7920001 86
-1.199 2.2360001 2.7620001 108
-1.198 2.0739999 2.7449999 105
-1.242 2.5439999 2.8050001 92
-1.255 2.3870001 2.7939999 81
-1.26 2.2290001 2.7880001 89
-1.258 2.075 2.7869999 88
-1.306 2.523 2.8050001 85
-1.312 2.3629999 2.7950001 84
-1.307 2.1989999 2.786 88
-1.298 2.0409999 2.783 80
-1.37 2.503 2.809 85
-1.3660001 2.335 2.793 85
-1.352 2.165 2.78 80
-1.34 2.0120001 2.7880001 90
-1.432 2.477 2.8069999 91
-1.42 2.3050001 2.7909999 83
-1.403 2.141 2.7880001 89
-1.378 1.977 2.7850001 86
-1.494 2.45 2.8069999 93
-1.476 2.279 2.7950001 80
-1.447 2.1059999 2.783 89
-1.4170001 1.9450001 2.786 80
-1.557 2.4230001 2.8080001 91
-1.529 2.247 2.793 79
-1.4910001 2.072 2.78 80
-1.457 1.913 2.789 82
-1.6160001 2.3900001 2.8039999 92
-1.58 2.2130001 2.79 76
-1.541 2.0439999 2.7880001 80
-1.495 1.8789999 2.79 82
-1.675 2.3559999 2.8010001 91
-1.632 2.1789999 2.789 80
-1.58 2.0039999 2.78 81
-1.529 1.842 2.7869999 83
-1.734 2.3210001 2.8 91
-1.687 2.1489999 2.796 97
-1.624 1.969 2.7809999 81
-1.566 1.807 2.7880001 87
-1.7920001 2.286 2.799 87
-1.7359999 2.112 2.793 94
-1.668 1.9349999 2.7839999 89
-1.598 1.768 2.7839999 87
-1.85 2.2490001 2.7980001 85
-1.788 2.076 2.7950001 89
-1.707 1.895 2.779 82
-1.6289999 1.728 2.78 85
-1.9119999 2.2160001 2.8050001 92
-1.835 2.036 2.793 101
-1.7460001 1.855 2.776 86
-1.668 1.697 2.79 86
-1.9680001 2.1760001 2.8050001 88
-1.8839999 1.997 2.793 89
-1.789 1.819 2.7809999 80
-1.697 1.656 2.783 87
-2.0209999 2.132 2.8010001 88
-1.936 1.962 2.8 73
-1.825 1.777 2.776 88
-1.726 1.615 2.78 83
-1.954 1.966 2.6359999 96
-1.979 1.916 2.7950001 91
-1.862 1.7359999 2.7739999 84
-1.76 1.579 2.7850001 85
-1.967 1.8890001 2.5869999 49
-2.0190001 1.868 2.7869999 88
-1.9 1.6950001 2.776 87
-1.788 1.539 2.783 93
-2.115 1.938 2.714 90
-1.9910001 1.76 2.6900001 150
-1.939 1.656 2.78 85
-1.811 1.494 2.7739999 88
-2.2320001 1.95 2.7980001 89
-1.962 1.656 2.595 92
-1.971 1.61 2.7750001 81
-1.84 1.455 2.7750001 85
-2.2809999 1.901 2.7969999 93
-1.998 1.6109999 2.5910001 72
-2.0050001 1.566 2.7739999 87
-1.869 1.415 2.777 87
-2.332 1.852 2.7980001 88
-2.148 1.652 2.7320001 150
-2.0009999 1.494 2.7219999 150
-1.893 1.373 2.773 87
-2.3789999 1.8 2.7980001 83
-2.233 1.6390001 2.79 94
-1.969 1.405 2.6370001 150
-1.921 1.334 2.7780001 83
-2.425 1.747 2.796 85
-2.27 1.5880001 2.7880001 90
-1.964 1.3380001 2.5899999 79
-1.946 1.2920001 2.7780001 83
-2.4660001 1.6900001 2.7909999 86
-2.3069999 1.5369999 2.7869999 94
-1.998 1.298 2.598 107
-1.97 1.25 2.777 88
-2.5179999 1.64 2.8 84
-2.3469999 1.488 2.79 91
-2.0669999 1.28 2.6500001 150
-1.9910001 1.207 2.7750001 89
-2.5539999 1.579 2.7920001 90
-2.3759999 1.433 2.783 95
-2.1619999 1.275 2.7349999 150
-2.007 1.16 2.7650001 106
-2.598 1.523 2.796 90
-2.414 1.382 2.7880001 90
-2.2149999 1.242 2.767 105
-1.998 1.1 2.723 150
-2.6359999 1.4630001 2.7950001 93
-2.4489999 1.329 2.789 98
-2.243 1.194 2.7690001 90
-1.939 1.016 2.6159999 51
-2.675 1.404 2.7950001 92
-2.4719999 1.27 2.78 93
-2.2709999 1.147 2.773 87
-1.974 0.98299998 2.638 135
-2.7079999 1.341 2.7920001 98
-2.5109999 1.219 2.789 97
-2.2950001 1.097 2.7720001 89
-1.971 0.93199998 2.6099999 80
-2.744 1.28 2.793 112
-2.54 1.163 2.79 93
-2.3169999 1.0470001 2.77 89
-1.98 0.88700002 2.5999999 79
-2.7650001 1.211 2.78 115
-2.5639999 1.105 2.786 98
-2.3440001 0.99800003 2.7750001 85
-2.0009999 0.847 2.6059999 72
-2.7850001 1.143 2.7679999 120
-2.592 1.048 2.7869999 104
-2.3610001 0.94499999 2.77 90
-2.04 0.815 2.635 103
-2.8110001 1.077 2.7650001 123
-2.6129999 0.98799998 2.783 95
-2.3800001 0.89300001 2.7679999 91
-2.0899999 0.78500003 2.6789999 136
-2.8310001 1.01 2.757 106
-2.6359999 0.92900002 2.783 95
-2.3989999 0.84200001 2.7679999 91
-2.135 0.75199997 2.7190001 150
-2.8859999 0.954 2.7850001 93
-2.6589999 0.87 2.783 102
-2.4170001 0.79000002 2.7679999 90
-2.1670001 0.71399999 2.7420001 150
-2.9119999 0.88700002 2.786 92
-2.675 0.80900002 2.779 98
-2.4319999 0.73699999 2.766 96
-2.1960001 0.67400002 2.7609999 149
-1.579 0.44100001 1.499 3
-2.691 0.74800003 2.7750001 63
-2.448 0.68400002 2.766 96
-2.2079999 0.62800002 2.76 122
-1.524 0.38699999 1.437 8
-1.518 0.38499999 1.5549999 2
-2.4619999 0.63099998 2.766 88
-2.2279999 0.58499998 2.77 108
-1.5089999 0.34599999 1.413 17
-1.526 0.34999999 1.553 0
-2.474 0.57800001 2.7639999 93
-2.2379999 0.53799999 2.7679999 90
-1.51 0.30899999 1.406 10
-1.54 0.31799999 1.5599999 0
-2.4879999 0.52399999 2.7650001 94
-2.2509999 0.493 2.7709999 80
-1.592 0.287 1.474 59
-1.559 0.285 1.572 0
-2.4979999 0.47099999 2.763 96
-2.257 0.44600001 2.7679999 87
-3.0209999 0.47299999 2.7850001 85
-2.767 0.442 2.776 97
-2.503 0.41600001 2.7579999 94
-2.2690001 0.40000001 2.7709999 84
-3.0280001 0.40200001 2.78 90
-2.7709999 0.37900001 2.77 93
-2.5179999 0.36199999 2.7639999 95
-2.2780001 0.354 2.7720001 82
-3.033 0.331 2.7750001 95
-2.786 0.317 2.776 105
-2.5209999 0.308 2.7590001 102
-2.28 0.30599999 2.766 84
-3.046 0.26100001 2.779 93
-2.783 0.25299999 2.766 96
-2.526 0.25299999 2.757 85
-2.2880001 0.259 2.7679999 89
-3.046 0.189 2.7739999 89
-2.796 0.191 2.773 99
-2.5369999 0.199 2.763 93
-2.293 0.212 2.767 89
-3.0480001 0.118 2.7709999 90
-2.799 0.12800001 2.7720001 96
-2.536 0.14399999 2.757 98
-2.2969999 0.16500001 2.766 86
-3.0510001 0.048 2.7720001 90
-2.8039999 0.064999998 2.7739999 98
-2.54 0.089000002 2.7579999 101
-2.3010001 0.118 2.766 89
-3.059 -0.022 2.7780001 94
-2.7950001 0.003 2.7639999 96
-2.546 0.034000002 2.7620001 96
-2.3039999 0.07 2.766 88
-3.0469999 -0.093000002 2.7679999 94
-2.8 -0.059 2.7690001 91
-2.543 -0.018999999 2.757 101
-2.3080001 0.023 2.7679999 85
-3.0469999 -0.164 2.7709999 93
-2.8 -0.122 2.7709999 97
-2.5420001 -0.074000001 2.756 100
-2.306 -0.023 2.7639999 87
-3.04 -0.235 2.77 86
-2.789 -0.185 2.763 90
-2.54 -0.12899999 2.756 102
-2.3069999 -0.071000002 2.763 89
-3.033 -0.30500001 2.7690001 96
-2.7920001 -0.248 2.77 96
-2.536 -0.184 2.7539999 96
-2.3039999 -0.118 2.7609999 85
-3.0280001 -0.37599999 2.7720001 94
-2.7820001 -0.31 2.766 90
-2.5320001 -0.23899999 2.753 96
-2.303 -0.16599999 2.7609999 86
-3.016 -0.44499999 2.7709999 91
-2.7690001 -0.37099999 2.7609999 96
-2.527 -0.29300001 2.753 97
-2.3010001 -0.214 2.76 87
-2.9660001 -0.50800002 2.7360001 127
-2.766 -0.43399999 2.767 103
-2.5179999 -0.34799999 2.7490001 89
-2.2980001 -0.26199999 2.7590001 88
-2.964 -0.579 2.747 135
-2.7479999 -0.495 2.7590001 108
-2.5120001 -0.40200001 2.75 97
-2.293 -0.30899999 2.757 86
-2.937 -0.64399999 2.7360001 148
-2.737 -0.55599999 2.7609999 118
-2.5090001 -0.45699999 2.7550001 96
-2.2880001 -0.35699999 2.757 88
-2.9130001 -0.70899999 2.73 139
-2.723 -0.61699998 2.7590001 106
-2.4979999 -0.51099998 2.753 92
-2.2850001 -0.405 2.7590001 82
-2.8959999 -0.77700001 2.733 139
-2.711 -0.67799997 2.763 95
-2.484 -0.56400001 2.75 94
-2.276 -0.45300001 2.756 88
-2.872 -0.84200001 2.73 139
-2.6889999 -0.73699999 2.757 96
-2.4719999 -0.61799997 2.7490001 96
-2.2709999 -0.50099999 2.7579999 89
-2.8529999 -0.90799999 2.733 119
-2.6719999 -0.79699999 2.757 97
-2.4619999 -0.67199999 2.7520001 88
-2.257 -0.54699999 2.7509999 89
-2.8310001 -0.97299999 2.7349999 123
-2.652 -0.85500002 2.756 99
-2.444 -0.72399998 2.747 93
-2.253 -0.59600002 2.756 88
-2.802 -1.035 2.7320001 119
-2.625 -0.912 2.75 96
-2.4289999 -0.77700001 2.747 97
-2.243 -0.64399999 2.756 89
-2.7780001 -1.1 2.7349999 117
-2.6099999 -0.972 2.757 100
-2.4119999 -0.82999998 2.7460001 94
-2.2290001 -0.69 2.7520001 93
-2.7620001 -1.1670001 2.7479999 105
-2.5810001 -1.028 2.75 94
-2.3929999 -0.88099998 2.743 93
-2.2179999 -0.73799998 2.7509999 90
-2.7349999 -1.23 2.7509999 103
-2.5539999 -1.0829999 2.747 92
-2.3770001 -0.93400002 2.7460001 100
-2.201 -0.78399998 2.7460001 104
-2.7019999 -1.291 2.7509999 94
-2.5320001 -1.141 2.7509999 96
-2.355 -0.98500001 2.7420001 96
-2.178 -0.82800001 2.733 150
-2.6730001 -1.352 2.7539999 90
-2.4949999 -1.192 2.7409999 84
-2.3340001 -1.036 2.7420001 94
-2.151 -0.86900002 2.7160001 150
-2.6370001 -1.411 2.7539999 92
-2.4660001 -1.245 2.7390001 87
-2.313 -1.087 2.7420001 94
-2.0929999 -0.898 2.6619999 150
-2.5940001 -1.464 2.747 90
-2.4449999 -1.304 2.7490001 100
-2.29 -1.137 2.7409999 94
-2.0020001 -0.90899998 2.5639999 59
-2.5580001 -1.522 2.7490001 90
-2.4089999 -1.354 2.743 85
-2.263 -1.1849999 2.7379999 87
-1.984 -0.95099998 2.5610001 50
-2.5139999 -1.574 2.743 96
-2.375 -1.405 2.74 85
-2.24 -1.235 2.74 95
-1.961 -0.99199998 2.553 44
-2.4719999 -1.627 2.7420001 87
-2.342 -1.457 2.74 87
-2.2160001 -1.285 2.7420001 93
-1.957 -1.043 2.5710001 82
-2.4319999 -1.681 2.743 85
-2.309 -1.508 2.7409999 91
-2.1730001 -1.324 2.7219999 139
-1.955 -1.095 2.592 137
-2.3870001 -1.7309999 2.74 93
-2.27 -1.5549999 2.737 90
-2.066 -1.321 2.6210001 150
-1.9809999 -1.166 2.6530001 150
-2.342 -1.781 2.74 94
-2.2379999 -1.607 2.743 88
-1.978 -1.326 2.543 45
-2.013 -1.243 2.724 110
-2.2980001 -1.83 2.7409999 95
-2.1949999 -1.651 2.7349999 98
-1.956 -1.373 2.55 72
-2.006 -1.298 2.7449999 84
-2.253 -1.8789999 2.7420001 99
-2.039 -1.605 2.586 150
-1.951 -1.434 2.582 150
-1.978 -1.34 2.737 84
-2.204 -1.924 2.74 95
-1.961 -1.615 2.533 45
-2.0079999 -1.544 2.6989999 150
-1.956 -1.387 2.7409999 81
-1.9910001 -1.819 2.53 53
-1.948 -1.678 2.566 150
-2.0009999 -1.609 2.734 98
-1.934 -1.434 2.7460001 88
-1.9630001 -1.876 2.553 86
-1.96 -1.765 2.6340001 150
-1.97 -1.655 2.737 96
-1.906 -1.478 2.743 88
-1.9910001 -1.989 2.651 150
-1.992 -1.874 2.734 91
-1.933 -1.697 2.734 86
-1.877 -1.521 2.7409999 81
-2.0039999 -2.0940001 2.737 97
-1.951 -1.918 2.7360001 93
-1.899 -1.7410001 2.737 79
-1.849 -1.5650001 2.7409999 88
-1.949 -2.1289999 2.7320001 97
-1.902 -1.955 2.73 94
-1.859 -1.781 2.7320001 91
-1.818 -1.607 2.7390001 88
-1.897 -2.168 2.7320001 95
-1.858 -1.995 2.7309999 91
-1.821 -1.821 2.7309999 90
-1.785 -1.648 2.7349999 88
-1.846 -2.207 2.7349999 96
-1.813 -2.0339999 2.7309999 92
-1.783 -1.862 2.7309999 92
-1.757 -1.694 2.74 84
-1.7920001 -2.243 2.7360001 88
-1.7640001 -2.069 2.7279999 98
-1.744 -1.903 2.7320001 90
-1.724 -1.735 2.7390001 83
-1.7359999 -2.2739999 2.7320001 86
-1.721 -2.1110001 2.734 95
-1.702 -1.9400001 2.7290001 88
-1.689 -1.775 2.7349999 80
-1.684 -2.3110001 2.737 84
-1.669 -2.141 2.7279999 90
-1.66 -1.977 2.7279999 87
-1.655 -1.816 2.7349999 82
-1.626 -2.3380001 2.733 93
-1.619 -2.174 2.7260001 91
-1.619 -2.0150001 2.7279999 89
-1.62 -1.858 2.737 85
-1.568 -2.365 2.73 89
-1.571 -2.2079999 2.7279999 94
-1.575 -2.0510001 2.727 89
-1.581 -1.895 2.7320001 80
-1.5140001 -2.3959999 2.733 96
-1.52 -2.2390001 2.7260001 92
-1.531 -2.085 2.7260001 89
-1.545 -1.9349999 2.7320001 80
-1.455 -2.4189999 2.7290001 94
-1.469 -2.2679999 2.7249999 89
-1.487 -2.122 2.7279999 87
-1.505 -1.972 2.73 83
-1.393 -2.4360001 2.72 84
-1.419 -2.3010001 2.7290001 93
-1.442 -2.1559999 2.7279999 83
-1.466 -2.0109999 2.73 73
-1.339 -2.4660001 2.727 78
-1.3660001 -2.326 2.7249999 90
-1.3940001 -2.184 2.7219999 89
-1.428 -2.052 2.7349999 88
-1.279 -2.4849999 2.724 77
-1.313 -2.3529999 2.7249999 93
-1.349 -2.2190001 2.7260001 84
-1.387 -2.0880001 2.733 84
-1.221 -2.5050001 2.723 92
-1.262 -2.381 2.7279999 94
-1.3 -2.247 2.723 85
-1.3430001 -2.122 2.7309999 81
-1.1619999 -2.523 2.7219999 91
-1.209 -2.4070001 2.7290001 90
-1.252 -2.2780001 2.723 84
-1.3 -2.1570001 2.73 86
-1.104 -2.5420001 2.723 88
-1.153 -2.425 2.723 98
-1.202 -2.306 2.7219999 84
-1.256 -2.1919999 2.73 84
-1.044 -2.5539999 2.7179999 92
-1.099 -2.448 2.724 90
-1.153 -2.3340001 2.7219999 86
-1.21 -2.224 2.7279999 80
-0.98799998 -2.576 2.7260001 92
-1.045 -2.47 2.7249999 93
-1.102 -2.359 2.72 84
-1.165 -2.2590001 2.7290001 80
-0.92799997 -2.586 2.723 87
-0.98799998 -2.483 2.7179999 91
-1.051 -2.3840001 2.7179999 84
-1.117 -2.289 2.727 80
-0.86799997 -2.595 2.7190001 93
-0.935 -2.5090001 2.7260001 94
-0.99900001 -2.4089999 2.7179999 86
-1.068 -2.3169999 2.723 79
-0.81 -2.6059999 2.72 89
-0.87800002 -2.5209999 2.721 93
-0.94700003 -2.4300001 2.7160001 84
-1.022 -2.352 2.7279999 83
-0.75099999 -2.6140001 2.7179999 94
-0.82200003 -2.536 2.72 87
-0.89600003 -2.457 2.721 80
-0.97100002 -2.3789999 2.7260001 86
-0.69199997 -2.622 2.7190001 91
-0.76700002 -2.5539999 2.724 93
-0.84200001 -2.4760001 2.7179999 80
-0.91900003 -2.404 2.7219999 86
-0.634 -2.6289999 2.7179999 97
-0.71100003 -2.5680001 2.724 93
-0.78799999 -2.4949999 2.7160001 80
-0.86900002 -2.4349999 2.7249999 83
-0.57599998 -2.6359999 2.72 93
-0.65200001 -2.5699999 2.714 85
-0.73400003 -2.5150001 2.717 81
-0.81599998 -2.4579999 2.721 84
-0.51499999 -2.6300001 2.71 96
-0.597 -2.5869999 2.72 92
-0.67900002 -2.533 2.717 80
-0.76300001 -2.4820001 2.7190001 91
-0.45899999 -2.642 2.72 94
-0.54000002 -2.5929999 2.7149999 98
-0.625 -2.553 2.72 84
-0.70999998 -2.5090001 2.7219999 90
-0.40099999 -2.6370001 2.7130001 94
-0.48300001 -2.6010001 2.7149999 94
-0.56999999 -2.572 2.723 84
-0.65499997 -2.53 2.7190001 87
-0.34299999 -2.6370001 2.7130001 94
-0.42699999 -2.612 2.72 97
-0.51300001 -2.5810001 2.717 82
-0.60000002 -2.5539999 2.721 89
-0.28600001 -2.6400001 2.717 97
-0.37 -2.6159999 2.717 90
-0.456 -2.5940001 2.717 82
-0.54500002 -2.5780001 2.724 85
-0.229 -2.635 2.714 93
-0.31299999 -2.618 2.714 83
-0.40000001 -2.609 2.7190001 85
-0.48800001 -2.595 2.7219999 88
-0.17200001 -2.6259999 2.7090001 94
-0.25600001 -2.6240001 2.717 90
-0.34200001 -2.618 2.7179999 85
-0.43099999 -2.615 2.7219999 87
-0.116 -2.625 2.7130001 95
-0.199 -2.6259999 2.7160001 89
-0.285 -2.625 2.714 83
-0.373 -2.632 2.7219999 92
-0.061000001 -2.6229999 2.7160001 92
-0.14300001 -2.6289999 2.7179999 94
-0.227 -2.6359999 2.717 80
-0.31400001 -2.645 2.7190001 93
-0.0049999999 -2.608 2.7090001 89
-0.086000003 -2.625 2.714 90
-0.169 -2.6400001 2.7130001 83
-0.25400001 -2.658 2.717 99
0.048999999 -2.605 2.714 87
-0.028999999 -2.625 2.7160001 88
-0.111 -2.6459999 2.714 78
-0.19499999 -2.6760001 2.721 91
0.104 -2.592 2.71 94
0.026000001 -2.618 2.711 95
-0.052000001 -2.6500001 2.7130001 80
-0.13500001 -2.688 2.721 94
0.15700001 -2.5799999 2.7090001 84
0.082999997 -2.6240001 2.72 94
0.0049999999 -2.6530001 2.7130001 84
-0.072999999 -2.6949999 2.7179999 93
0.211 -2.575 2.7149999 92
0.139 -2.615 2.7160001 93
0.064000003 -2.654 2.7119999 80
-0.012 -2.7119999 2.7260001 81
0.264 -2.559 2.711 82
0.19499999 -2.6099999 2.7179999 92
0.123 -2.6589999 2.7149999 85
0.048999999 -2.7219999 2.727 87
0.317 -2.5439999 2.71 93
0.25099999 -2.6040001 2.7190001 92
0.182 -2.6619999 2.7190001 78
0.111 -2.7260001 2.724 91
0.37 -2.536 2.7160001 91
0.30599999 -2.592 2.714 87
0.241 -2.6589999 2.7179999 54
0.17399999 -2.733 2.727 94
0.421 -2.5190001 2.7149999 96
0.361 -2.5840001 2.7160001 91
0.30000001 -2.655 2.717 82
0.237 -2.7320001 2.7219999 67
0.472 -2.5020001 2.714 97
0.41600001 -2.5739999 2.717 89
0.35800001 -2.6429999 2.71 85
0.301 -2.7360001 2.724 91
0.523 -2.487 2.7179999 96
0.47099999 -2.562 2.717 91
0.417 -2.6400001 2.7119999 80
0.36500001 -2.74 2.727 88
0.57300001 -2.467 2.7149999 92
0.52499998 -2.5469999 2.714 97
0.47799999 -2.6389999 2.7179999 80
0.428 -2.733 2.721 87
0.62099999 -2.444 2.711 83
0.57999998 -2.5380001 2.7190001 92
0.53500003 -2.6240001 2.7119999 81
0.49200001 -2.73 2.721 91
0.671 -2.427 2.7149999 88
0.63300002 -2.5190001 2.7149999 95
0.59399998 -2.6140001 2.711 83
0.55599999 -2.7219999 2.717 95
