# .PCD v0.7 - Point Cloud Data file format
VERSION 0.7
FIELDS x y z intensity
SIZE 4 4 4 4
TYPE F F F F
COUNT 1 1 1 1
WIDTH 1664
HEIGHT 1
VIEWPOINT 0 0 0 1 0 0 0
POINTS 1664
DATA ascii
-3.1459999 1.474 2.789 91
-2.882 1.376 2.7650001 119
-2.6760001 1.314 2.7920001 97
-3.4260001 1.4910001 2.79 74
-3.1800001 1.402 2.7880001 83
-2.9089999 1.312 2.7609999 121
-2.7090001 1.261 2.7969999 94
-3.4679999 1.4119999 2.7920001 78
-3.214 1.33 2.7869999 87
-2.944 1.251 2.7650001 132
-2.7279999 1.201 2.789 99
-3.4979999 1.3279999 2.786 76
-3.25 1.2589999 2.79 88
-2.971 1.186 2.763 129
-2.7409999 1.14 2.777 111
-3.5369999 1.247 2.7880001 78
-3.2739999 1.183 2.7839999 84
-2.994 1.12 2.76 124
-2.7620001 1.081 2.7739999 115
-3.562 1.1619999 2.7820001 75
-3.302 1.108 2.7820001 91
-3.0209999 1.0549999 2.76 128
-2.779 1.022 2.767 108
-3.5929999 1.079 2.783 78
-3.3329999 1.034 2.7839999 86
-3.0639999 0.99599999 2.777 94
-2.819 0.97000003 2.7839999 91
-3.6270001 0.99599999 2.7869999 73
-3.3559999 0.958 2.783 88
-3.0840001 0.92799997 2.773 84
-2.839 0.912 2.783 89
-3.648 0.91000003 2.7820001 75
-3.3729999 0.88099998 2.777 80
-3.115 0.86400002 2.7809999 81
-2.8640001 0.85399997 2.7869999 83
-3.6630001 0.82200003 2.776 77
-3.401 0.80500001 2.7820001 89
-3.131 0.79500002 2.777 74
-2.875 0.79299998 2.779 89
-3.688 0.736 2.779 74
-3.4170001 0.727 2.7780001 85
-3.1489999 0.72600001 2.776 79
-2.904 0.736 2.79 95
-3.707 0.64999998 2.7780001 78
-3.437 0.64999998 2.779 87
-3.161 0.65700001 2.7720001 83
-2.915 0.67400002 2.783 84
-3.7179999 0.56199998 2.773 76
-3.4519999 0.57200003 2.7780001 88
-3.1819999 0.58899999 2.7750001 80
-2.924 0.61199999 2.777 89
-3.733 0.47499999 2.7739999 77
-3.4630001 0.493 2.7750001 88
-3.1949999 0.51899999 2.773 78
-2.9460001 0.55299997 2.7839999 90
0 0 0 50
-3.473 0.414 2.773 85
-3.2079999 0.44999999 2.773 83
-2.95 0.49000001 2.7739999 90
-3.753 0.29800001 2.7720001 80
-3.484 0.33500001 2.773 88
-3.2160001 0.37900001 2.77 76
-2.9679999 0.42899999 2.78 79
-3.76 0.20999999 2.7709999 80
-3.4909999 0.25600001 2.7709999 85
-3.2260001 0.30899999 2.77 77
-2.983 0.368 2.783 84
-3.7639999 0.122 2.77 74
-3.494 0.177 2.7679999 82
0 0 0 50
-2.9909999 0.30500001 2.78 98
-3.763 0.034000002 2.767 77
-3.503 0.097000003 2.7709999 89
-3.2420001 0.168 2.77 77
-2.994 0.243 2.7739999 72
-3.7590001 -0.054000001 2.763 76
-3.5050001 0.017999999 2.77 86
0 0 0 50
-3.0090001 0.18000001 2.7809999 91
-3.7620001 -0.141 2.766 79
-3.503 -0.059999999 2.767 87
-3.2550001 0.026000001 2.7720001 81
-3.0139999 0.117 2.7780001 85
-3.756 -0.229 2.7650001 77
-3.503 -0.14 2.767 85
-3.2520001 -0.044 2.767 75
0 0 0 50
-3.7479999 -0.317 2.763 79
-3.5 -0.219 2.767 78
-3.2460001 -0.115 2.7609999 84
-3.017 -0.0089999996 2.7709999 88
-3.7379999 -0.40400001 2.7620001 76
0 0 0 50
-3.253 -0.18700001 2.767 77
-3.027 -0.072999999 2.777 82
-3.727 -0.491 2.7609999 77
-3.4879999 -0.377 2.7650001 86
-3.2479999 -0.25799999 2.7639999 74
-3.0209999 -0.13699999 2.7690001 85
-3.7149999 -0.57800001 2.7620001 79
-3.477 -0.456 2.763 86
0 0 0 50
-3.0250001 -0.20100001 2.7720001 75
-3.698 -0.66299999 2.76 78
-3.461 -0.53299999 2.7579999 80
-3.2360001 -0.40000001 2.7609999 74
-3.0220001 -0.26499999 2.7690001 78
-3.674 -0.74699998 2.756 77
0 0 0 50
-3.2309999 -0.47099999 2.7620001 71
-3.02 -0.329 2.7690001 80
-3.6589999 -0.833 2.7579999 82
-3.4360001 -0.68900001 2.7579999 88
-3.217 -0.542 2.757 72
-3.017 -0.39399999 2.7679999 77
-3.6300001 -0.91500002 2.7520001 76
0 0 0 50
-3.2130001 -0.61299998 2.7609999 77
-3.01 -0.458 2.7639999 85
-3.602 -0.99699998 2.75 76
-3.4000001 -0.84299999 2.756 83
-3.2 -0.68400002 2.7590001 78
-2.9719999 -0.51800001 2.7349999 124
-3.5799999 -1.081 2.7520001 77
0 0 0 50
-3.1800001 -0.75300002 2.7520001 75
-2.9779999 -0.58399999 2.7460001 131
-3.5480001 -1.161 2.7490001 76
-3.358 -0.995 2.7539999 84
-3.1730001 -0.82499999 2.7579999 85
-2.964 -0.64700001 2.7390001 134
0 0 0 50
0 0 0 0
-3.154 -0.89499998 2.756 82
-2.957 -0.71200001 2.7420001 134
-0.778 -0.29499999 0.61400002 9
-0.77999997 -0.26899999 0.648 7
-3.1329999 -0.963 2.7520001 78
-2.951 -0.778 2.7449999 122
-0.76200002 -0.30899999 0.60699999 6
-0.76200002 -0.28200001 0.63800001 6
0 0 0 50
-2.9300001 -0.83999997 2.7349999 125
-3.418 -1.478 2.75 17
-0.75199997 -0.29800001 0.63599998 7
-0.76099998 -0.271 0.67699999 6
-2.9130001 -0.903 2.7320001 122
-3.3740001 -1.552 2.744 76
-0.75300002 -0.31900001 0.64300001 6
0 0 0 50
0 0 0 0
-3.3369999 -1.628 2.7460001 73
-0.745 -0.33500001 0.64200002 1
-0.73699999 -0.29899999 0.66500002 7
-0.75099999 -0.26800001 0.71100003 3
0 0 0 0
-3.152 -1.5039999 2.743 10
-0.741 -0.31999999 0.67400002 6
-0.73299998 -0.28 0.69800001 5
0 0 0 50
0 0 0 0
-0.73699999 -0.338 0.676 2
-0.73199999 -0.29800001 0.70099998 6
-0.796 -0.458 0.68099999 11
-0.81099999 -0.43200001 0.722 10
-0.82200003 -0.39899999 0.76099998 1
-0.72299999 -0.31299999 0.69800001 4
-0.76800001 -0.46599999 0.667 8
-0.796 -0.447 0.71700001 10
-0.81999999 -0.41999999 0.76599997 9
-0.73000002 -0.33500001 0.70999998 0
-0.73699999 -0.47 0.64999998 8
-0.77200001 -0.45699999 0.704 7
-0.80400002 -0.435 0.75999999 10
-0.81800002 -0.39700001 0.80199999 3
-0.71100003 -0.47600001 0.63599998 10
-0.72500002 -0.45100001 0.671 4
-0.78299999 -0.44600001 0.74800003 7
-0.81400001 -0.417 0.80400002 10
-0.67799997 -0.477 0.61799997 11
-0.69499999 -0.454 0.65200001 8
-0.73799998 -0.442 0.71399999 4
-0.79900002 -0.43099999 0.79699999 9
-0.65399998 -0.48300001 0.60600001 10
-0.671 -0.46000001 0.639 10
-0.70499998 -0.44299999 0.69 9
-0.76599997 -0.435 0.76999998 5
-0.62800002 -0.48500001 0.59200001 10
-0.64999998 -0.46700001 0.62900001 10
-0.68099999 -0.44999999 0.67500001 9
-0.71799999 -0.42899999 0.73000002 7
-0.60799998 -0.493 0.58499998 10
-0.63800001 -0.47999999 0.62699997 10
-0.66000003 -0.45699999 0.66399997 9
-0.70099998 -0.44 0.72000003 10
-0.59500003 -0.505 0.58499998 11
-0.61799997 -0.48800001 0.61900002 10
-0.64300001 -0.46700001 0.65600002 10
-0.68400002 -0.44999999 0.71100003 9
-0.56599998 -0.50199997 0.56699997 14
-0.59600002 -0.49200001 0.60699999 10
-0.62599999 -0.47499999 0.648 9
-0.65899998 -0.45500001 0.69300002 9
-0.56900001 -0.528 0.583 11
-0.58600003 -0.50599998 0.60900003 10
-0.60600001 -0.48199999 0.63800001 10
-0.64300001 -0.465 0.685 10
-0.54900002 -0.53299999 0.57499999 10
-0.56599998 -0.51099998 0.60000002 14
-0.58899999 -0.49000001 0.63 10
-0.62199998 -0.47099999 0.67199999 10
-0.55000001 -0.55800003 0.58999997 8
-0.56 -0.528 0.60500002 10
-0.57599998 -0.50099999 0.62699997 10
-0.60299999 -0.47799999 0.66100001 10
-0.54299998 -0.57700002 0.59799999 11
-0.54699999 -0.54000002 0.60500002 9
-0.56699997 -0.51599997 0.62900001 10
-0.583 -0.484 0.64899999 11
-0.574 -0.63700002 0.648 6
-0.546 -0.56300002 0.61699998 8
-0.55599999 -0.52899998 0.62900001 10
-0.57300001 -0.49700001 0.648 11
-0.57300001 -0.66500002 0.66500002 7
-0.55599999 -0.59899998 0.64300001 4
-0.55299997 -0.54900002 0.63800001 8
-0.56699997 -0.514 0.65200001 10
-0.66900003 -0.81300002 0.79799998 6
-0.57700002 -0.64999998 0.68400002 10
-0.56 -0.58099997 0.65899998 4
-0.565 -0.53600001 0.66100001 9
-0.71399999 -0.90799999 0.87699997 10
-0.59299999 -0.699 0.72100002 6
-0.583 -0.63300002 0.70200002 10
-0.56099999 -0.55699998 0.67000002 5
-0.68599999 -0.91299999 0.86900002 10
-0.72100002 -0.889 0.90100002 13
-0.57200003 -0.64899999 0.70499998 8
-0.57700002 -0.59799999 0.70200002 11
-0.66000003 -0.92000002 0.86299998 8
0 0 0 50
-0.61799997 -0.73299998 0.77999997 7
-0.58099997 -0.63 0.722 10
-0.64099997 -0.93699998 0.86699998 6
-0.67500001 -0.912 0.89399999 7
-0.70899999 -0.88099998 0.91900003 13
-0.574 -0.65100002 0.72899997 9
-1.825 -2.7969999 2.5539999 8
-0.65600002 -0.92799997 0.89600003 4
-0.69199997 -0.89899999 0.921 12
-0.61299998 -0.727 0.796 7
-1.75 -2.8150001 2.539 45
-1.864 -2.766 2.6289999 150
-0.67400002 -0.91799998 0.92299998 13
-0.70899999 -0.88099998 0.94400001 9
-1.704 -2.882 2.569 49
-1.732 -2.6960001 2.527 47
-0.65899998 -0.94 0.93000001 1
-0.68900001 -0.89600003 0.94 10
-1.6210001 -2.885 2.5450001 50
-1.669 -2.7279999 2.5220001 52
-1.872 -2.799 2.723 86
-0.67299998 -0.91799998 0.94400001 9
-1.535 -2.8770001 2.5120001 49
-1.63 -2.8 2.556 47
-1.78 -2.7939999 2.675 139
-1.892 -2.704 2.7279999 80
-1.46 -2.8870001 2.497 52
-1.5880001 -2.8710001 2.5899999 52
-1.632 -2.6919999 2.539 77
-1.829 -2.744 2.7190001 72
-1.38 -2.882 2.471 55
-1.513 -2.8829999 2.5699999 50
-1.5650001 -2.7149999 2.5239999 53
-1.774 -2.7969999 2.7219999 58
-1.303 -2.882 2.451 53
-1.432 -2.882 2.5420001 53
-1.515 -2.7690001 2.539 48
-1.687 -2.7980001 2.6760001 76
-1.228 -2.881 2.431 55
-1.353 -2.881 2.5139999 52
-1.48 -2.8540001 2.5829999 48
-1.543 -2.6960001 2.5369999 66
-1.153 -2.875 2.4089999 52
-1.278 -2.8829999 2.4920001 53
-1.413 -2.8800001 2.5739999 48
-1.476 -2.72 2.5190001 46
-1.081 -2.8770001 2.3959999 53
-1.204 -2.8829999 2.47 54
-1.335 -2.882 2.5439999 52
-1.4450001 -2.812 2.566 48
-1.012 -2.8789999 2.3829999 53
-1.127 -2.8759999 2.4430001 53
-1.257 -2.8789999 2.513 52
-1.397 -2.8789999 2.589 50
-0.94099998 -2.8740001 2.3659999 55
-1.057 -2.881 2.428 54
-1.182 -2.8800001 2.4879999 52
-1.317 -2.8800001 2.5539999 49
-0.87099999 -2.868 2.3499999 56
-0.986 -2.8800001 2.4089999 57
-1.107 -2.878 2.461 54
-1.239 -2.8800001 2.5209999 48
-0.80500001 -2.875 2.345 56
-0.91500002 -2.8770001 2.3900001 58
-1.033 -2.8759999 2.4349999 54
-1.16 -2.8770001 2.487 49
-0.73900002 -2.875 2.336 56
-0.84500003 -2.8740001 2.372 60
-0.96100003 -2.8770001 2.4130001 55
-1.0829999 -2.8729999 2.454 49
-0.67199999 -2.8670001 2.322 55
-0.77899998 -2.878 2.3610001 63
-0.889 -2.872 2.3889999 53
-1.006 -2.869 2.4219999 51
-0.60799998 -2.872 2.3199999 56
-0.70899999 -2.869 2.3410001 62
-0.81800002 -2.8699999 2.3670001 53
-0.93699998 -2.8800001 2.405 51
-0.54400003 -2.8699999 2.313 57
-0.64399999 -2.8699999 2.332 55
-0.75 -2.8699999 2.3510001 54
-0.86199999 -2.8729999 2.3740001 52
-0.47999999 -2.868 2.3069999 56
-0.579 -2.8710001 2.323 66
-0.68099999 -2.868 2.332 53
0 0 0 50
-0.414 -2.845 2.286 66
-0.514 -2.875 2.3169999 58
-0.61299998 -2.8659999 2.3169999 52
-0.71700001 -2.8640001 2.323 54
-0.35600001 -2.872 2.3050001 57
-0.449 -2.8710001 2.306 59
-0.546 -2.8670001 2.303 51
-0.64700001 -2.8629999 2.302 51
-0.294 -2.872 2.3039999 58
-0.38100001 -2.842 2.276 97
-0.47999999 -2.8670001 2.2909999 51
-0.57800001 -2.865 2.2850001 55
-0.233 -2.8770001 2.3080001 60
-0.322 -2.8710001 2.293 59
-0.40200001 -2.7820001 2.2119999 110
-0.509 -2.862 2.266 54
-0.171 -2.868 2.302 55
-0.25799999 -2.868 2.2869999 60
-0.34900001 -2.872 2.273 51
-0.44100001 -2.8629999 2.2509999 56
-0.11 -2.8770001 2.3110001 57
-0.19599999 -2.8729999 2.2880001 62
-0.28400001 -2.865 2.26 53
-0.373 -2.859 2.234 58
-0.050000001 -2.8770001 2.3139999 58
-0.133 -2.872 2.2850001 61
-0.219 -2.862 2.25 52
-0.30700001 -2.869 2.2279999 56
0.0099999998 -2.8740001 2.316 59
-0.071000002 -2.872 2.2839999 63
-0.154 -2.8640001 2.2449999 51
-0.23999999 -2.8670001 2.2149999 57
0.071000002 -2.869 2.3169999 57
-0.0080000004 -2.868 2.2809999 56
-0.089000002 -2.865 2.24 53
-0.17200001 -2.8629999 2.2019999 61
0.132 -2.869 2.323 56
0.052999999 -2.869 2.2820001 55
-0.025 -2.8610001 2.233 50
-0.105 -2.8670001 2.1949999 61
0.192 -2.8710001 2.332 58
0.115 -2.8640001 2.28 55
0.037999999 -2.8659999 2.233 55
-0.037999999 -2.872 2.191 66
0.25299999 -2.8670001 2.3369999 59
0.178 -2.8710001 2.289 59
0.103 -2.8610001 2.2279999 49
0.028000001 -2.865 2.1800001 62
0.31299999 -2.868 2.3469999 61
0.23999999 -2.868 2.29 62
0.167 -2.8610001 2.227 50
0.094999999 -2.865 2.174 57
0.375 -2.8710001 2.359 56
0.303 -2.8659999 2.2950001 58
0.23199999 -2.8640001 2.23 52
0.162 -2.8659999 2.171 59
0.435 -2.8659999 2.3659999 56
0.366 -2.869 2.303 57
0.29800001 -2.865 2.2320001 53
0.23 -2.8659999 2.168 58
0.49700001 -2.862 2.375 55
0.42899999 -2.8659999 2.3080001 56
0.36199999 -2.8570001 2.2290001 51
0.29800001 -2.8659999 2.1659999 60
0.56 -2.868 2.3929999 57
0.493 -2.862 2.313 63
0.42899999 -2.8659999 2.24 52
0.36500001 -2.8629999 2.1630001 57
0.62 -2.8599999 2.401 55
0.55800003 -2.8670001 2.3269999 64
0.49399999 -2.858 2.2390001 51
0.433 -2.8559999 2.1589999 58
0.68599999 -2.8710001 2.425 53
0.62199998 -2.8629999 2.3340001 63
0.56099999 -2.862 2.2490001 52
0.50400001 -2.872 2.1730001 59
0.75 -2.8759999 2.4460001 54
0.68800002 -2.8659999 2.349 61
0.63 -2.868 2.26 52
0.57200003 -2.8629999 2.1700001 56
0.81199998 -2.8659999 2.4549999 55
0.75400001 -2.868 2.3640001 62
0.69700003 -2.8629999 2.266 51
0.64300001 -2.865 2.1760001 58
0.87900001 -2.8740001 2.4809999 53
0.82200003 -2.8699999 2.3789999 54
0.76700002 -2.865 2.277 54
0.71499997 -2.8659999 2.1830001 59
0.94400001 -2.8710001 2.4990001 55
0.88999999 -2.8699999 2.3959999 55
0.83700001 -2.8640001 2.2880001 53
0.78600001 -2.8610001 2.1860001 56
1.011 -2.872 2.5209999 51
0.95899999 -2.8710001 2.4130001 53
0.90600002 -2.8599999 2.2980001 54
0.85799998 -2.8570001 2.1919999 57
1.0779999 -2.872 2.5439999 50
1.031 -2.878 2.437 54
0.97899997 -2.8629999 2.3139999 54
0.93300003 -2.8599999 2.2049999 57
1.149 -2.8770001 2.573 49
1.1 -2.8740001 2.454 53
1.056 -2.875 2.339 54
1.008 -2.858 2.2149999 56
1.197 -2.8280001 2.5539999 48
1.175 -2.882 2.4820001 54
1.13 -2.872 2.3540001 55
1.085 -2.859 2.2290001 56
1.244 -2.777 2.533 47
1.2460001 -2.8759999 2.4990001 54
1.204 -2.869 2.3699999 55
1.165 -2.8629999 2.2479999 57
1.2920001 -2.7309999 2.5179999 48
1.321 -2.875 2.5220001 53
1.2819999 -2.8710001 2.391 54
1.247 -2.868 2.2679999 54
1.346 -2.7 2.5179999 60
1.399 -2.8789999 2.552 54
1.362 -2.8710001 2.414 54
1.326 -2.8640001 2.283 54
1.428 -2.721 2.5669999 126
1.474 -2.8740001 2.575 49
1.444 -2.875 2.441 55
1.414 -2.8710001 2.309 54
1.544 -2.8010001 2.6760001 150
1.535 -2.839 2.572 47
1.53 -2.881 2.471 55
1.498 -2.869 2.3299999 56
1.622 -2.8039999 2.7130001 93
1.577 -2.7709999 2.5409999 46
1.6160001 -2.8829999 2.5009999 52
1.587 -2.872 2.3559999 51
1.6799999 -2.7709999 2.7160001 94
1.62 -2.7079999 2.5150001 53
1.6950001 -2.868 2.5179999 48
1.676 -2.8699999 2.381 52
1.725 -2.717 2.701 85
1.684 -2.681 2.5209999 65
1.7869999 -2.8729999 2.5539999 49
1.77 -2.8699999 2.4089999 53
1.6670001 -2.51 2.5309999 77
1.751 -2.6570001 2.5339999 80
1.87 -2.858 2.5739999 49
1.8660001 -2.872 2.441 52
1.712 -2.4649999 2.5220001 85
1.939 -2.809 2.7179999 101
1.91 -2.78 2.539 47
1.971 -2.8800001 2.4820001 52
1.8279999 -2.5190001 2.618 56
1.998 -2.763 2.714 91
1.954 -2.71 2.5120001 47
2.0710001 -2.8770001 2.516 50
1.948 -2.572 2.7160001 92
2.062 -2.727 2.7219999 91
2.052 -2.7119999 2.5539999 64
2.1719999 -2.8710001 2.549 48
2.0009999 -2.5320001 2.7190001 93
2.1229999 -2.684 2.723 85
2.21 -2.789 2.6689999 87
2.2639999 -2.849 2.5710001 49
2.052 -2.4890001 2.72 93
2.177 -2.6329999 2.717 82
2.3169999 -2.79 2.7160001 75
2.2920001 -2.7479999 2.523 42
2.0999999 -2.4430001 2.717 83
2.2390001 -2.5899999 2.7219999 81
2.3789999 -2.7349999 2.7119999 76
2.3570001 -2.6930001 2.517 55
2.1530001 -2.402 2.723 89
2.2950001 -2.5409999 2.7219999 85
2.4449999 -2.6849999 2.7130001 75
2.5680001 -2.796 2.665 70
2.198 -2.3540001 2.72 97
2.349 -2.49 2.72 82
2.513 -2.6359999 2.7179999 75
2.691 -2.793 2.7179999 69
2.2449999 -2.3069999 2.72 93
2.405 -2.4419999 2.7219999 92
2.576 -2.5799999 2.717 76
2.76 -2.7309999 2.714 68
2.2950001 -2.263 2.723 91
2.4590001 -2.3900001 2.7219999 96
2.6359999 -2.5220001 2.7160001 74
2.8310001 -2.671 2.7160001 70
2.3380001 -2.2119999 2.721 92
2.51 -2.335 2.72 84
2.698 -2.467 2.7179999 72
2.8970001 -2.6059999 2.714 68
2.3840001 -2.164 2.723 94
2.5639999 -2.283 2.723 91
2.76 -2.4089999 2.721 74
2.964 -2.54 2.714 70
2.427 -2.1129999 2.7219999 94
2.615 -2.2279999 2.723 95
2.8110001 -2.3429999 2.714 76
3.0369999 -2.4790001 2.72 67
2.471 -2.063 2.723 92
2.6619999 -2.1700001 2.72 89
2.8710001 -2.2839999 2.7179999 75
3.1040001 -2.4130001 2.723 67
2.5120001 -2.0109999 2.7219999 84
2.7179999 -2.118 2.7279999 84
2.928 -2.2219999 2.7190001 75
3.164 -2.3410001 2.721 68
2.556 -1.961 2.7249999 93
2.7620001 -2.0569999 2.7249999 89
2.98 -2.1559999 2.7190001 74
3.224 -2.2679999 2.721 68
2.595 -1.9069999 2.724 88
2.806 -1.997 2.724 87
3.0380001 -2.0940001 2.724 76
3.2839999 -2.1949999 2.7219999 67
2.6340001 -1.853 2.723 86
2.8540001 -1.939 2.7260001 88
3.0829999 -2.0220001 2.7190001 74
3.3369999 -2.118 2.7190001 68
2.6760001 -1.801 2.7279999 86
2.895 -1.875 2.724 83
3.135 -1.955 2.721 76
3.3959999 -2.043 2.723 69
2.7019999 -1.738 2.7160001 94
2.9389999 -1.814 2.7260001 82
3.188 -1.888 2.7260001 74
3.448 -1.9630001 2.721 70
2.7290001 -1.677 2.707 111
2.9849999 -1.753 2.73 82
3.233 -1.816 2.7249999 75
3.5050001 -1.886 2.7260001 68
2.7809999 -1.63 2.723 92
3.0250001 -1.689 2.73 80
3.2750001 -1.742 2.723 74
3.556 -1.806 2.7279999 71
2.8199999 -1.575 2.7279999 90
3.0610001 -1.622 2.7279999 82
3.326 -1.673 2.73 73
3.6099999 -1.726 2.7320001 72
2.8529999 -1.517 2.727 91
3.1010001 -1.557 2.73 81
3.3699999 -1.599 2.733 74
3.648 -1.6390001 2.7279999 68
2.8859999 -1.4579999 2.727 88
3.141 -1.492 2.733 82
3.4059999 -1.522 2.7290001 75
3.7019999 -1.558 2.7360001 69
2.918 -1.398 2.727 83
3.1730001 -1.423 2.73 85
3.45 -1.447 2.734 70
3.7349999 -1.4680001 2.73 70
2.9460001 -1.337 2.7249999 79
3.2130001 -1.357 2.7360001 87
3.487 -1.369 2.7349999 74
3.7720001 -1.3789999 2.7279999 70
2.9849999 -1.28 2.734 73
3.2449999 -1.2869999 2.7360001 85
3.517 -1.289 2.7320001 74
3.813 -1.293 2.733 70
3.0109999 -1.217 2.7309999 75
3.2739999 -1.216 2.734 83
3.556 -1.212 2.737 75
3.849 -1.2029999 2.734 69
3.04 -1.155 2.7320001 85
3.3080001 -1.147 2.7390001 81
3.5880001 -1.131 2.7379999 75
2.835 -0.81300002 1.997 14
3.066 -1.0930001 2.733 73
3.336 -1.075 2.7379999 84
2.829 -0.82099998 2.141 3
2.842 -0.74199998 1.987 70
3.099 -1.031 2.7390001 81
3.3599999 -1.001 2.7360001 85
2.8340001 -0.75300002 2.1289999 60
2.8410001 -0.67000002 1.973 71
3.119 -0.96499997 2.734 74
2.8429999 -0.77899998 2.2980001 67
2.8399999 -0.68400002 2.119 59
2.842 -0.59899998 1.961 72
3.075 -0.88099998 2.6760001 68
2.8410001 -0.71200001 2.2809999 64
2.8340001 -0.61500001 2.1010001 62
2.8410001 -0.528 1.949 73
2.8429999 -0.75099999 2.4560001 55
2.8399999 -0.64600003 2.266 62
2.8380001 -0.54799998 2.092 62
2.8469999 -0.46000001 1.943 70
2.8399999 -0.68599999 2.438 54
2.8440001 -0.58099997 2.2550001 64
2.835 -0.47999999 2.079 64
2.8410001 -0.38999999 1.931 65
2.8399999 -0.62300003 2.4230001 55
2.8410001 -0.51499999 2.2409999 61
2.8369999 -0.414 2.0710001 69
2.849 -0.322 1.9299999 64
2.8399999 -0.56 2.408 58
2.836 -0.44999999 2.2260001 64
2.8429999 -0.34799999 2.0669999 66
2.8529999 -0.255 1.926 65
2.8410001 -0.498 2.3970001 56
2.846 -0.38600001 2.223 66
2.8340001 -0.28099999 2.053 60
2.8529999 -0.186 1.921 62
2.848 -0.43700001 2.391 57
2.8429999 -0.322 2.2119999 62
2.836 -0.215 2.049 60
2.8570001 -0.119 1.92 61
2.8429999 -0.37400001 2.375 57
2.8399999 -0.25799999 2.201 67
2.8369999 -0.15000001 2.0439999 64
4.0689998 -0.071999997 2.7309999 59
2.8469999 -0.31299999 2.368 56
2.845 -0.19499999 2.198 64
2.8929999 -0.086999997 2.0810001 7
4.059 0.023 2.723 61
2.8469999 -0.25099999 2.359 58
2.8469999 -0.132 2.194 68
3.8299999 -0.027000001 2.7509999 75
4.0700002 0.119 2.73 63
2.852 -0.191 2.355 61
3.582 -0.086000003 2.7539999 73
3.839 0.059999999 2.7550001 74
4.066 0.215 2.7279999 69
2.842 -0.12899999 2.3399999 53
3.585 -0.0070000002 2.7520001 82
3.8429999 0.149 2.757 76
4.059 0.31099999 2.727 70
3.3499999 -0.079999998 2.75 67
3.592 0.071999997 2.753 80
3.842 0.237 2.757 76
4.0560002 0.40799999 2.73 67
3.359 -0.0080000004 2.7520001 75
3.5929999 0.152 2.753 73
3.8380001 0.32600001 2.756 76
4.0599999 0.505 2.7390001 62
3.362 0.064000003 2.7490001 73
3.6029999 0.233 2.7590001 80
3.836 0.414 2.7579999 75
4.0409999 0.60000002 2.734 61
3.3710001 0.13699999 2.7520001 73
3.602 0.31400001 2.7590001 72
3.8310001 0.50300002 2.7590001 74
4.0359998 0.69700003 2.74 57
3.3740001 0.211 2.7520001 74
3.596 0.39500001 2.756 80
3.825 0.59200001 2.7620001 74
4.0560002 0.79900002 2.7650001 67
3.375 0.28400001 2.7509999 70
3.599 0.477 2.7609999 73
3.8110001 0.68000001 2.76 74
4.0370002 0.89499998 2.7650001 68
3.3800001 0.433 2.7539999 73
3.579 0.63800001 2.756 72
3.79 0.85699999 2.7650001 70
3.994 1.084 2.767 71
3.378 0.50800002 2.7550001 71
3.5840001 0.722 2.767 72
3.776 0.94499999 2.7679999 74
3.9719999 1.179 2.77 70
3.3789999 0.58399999 2.7590001 73
3.575 0.80400002 2.7679999 73
3.7539999 1.0319999 2.766 74
3.948 1.273 2.7739999 70
3.3770001 0.66100001 2.76 74
3.5580001 0.88499999 2.7650001 73
3.74 1.1210001 2.7709999 75
3.9119999 1.364 2.77 67
3.369 0.736 2.7590001 72
3.546 0.96700001 2.767 74
3.7130001 1.206 2.7690001 72
3.882 1.456 2.7720001 71
3.3559999 0.81099999 2.756 70
3.533 1.049 2.77 73
3.6849999 1.2920001 2.767 72
3.8529999 1.549 2.777 69
3.349 0.88700002 2.7579999 70
3.5109999 1.1289999 2.7679999 71
3.664 1.3789999 2.7720001 71
3.8180001 1.64 2.779 65
3.3429999 0.96499997 2.7620001 73
3.4960001 1.211 2.7709999 73
3.635 1.464 2.7720001 69
3.7720001 1.725 2.7750001 70
3.3329999 1.043 2.7650001 72
3.4760001 1.2920001 2.773 72
3.5999999 1.5470001 2.7690001 71
3.737 1.816 2.78 71
3.3169999 1.119 2.7639999 70
3.4489999 1.372 2.77 71
3.576 1.6339999 2.777 73
3.6900001 1.901 2.777 69
3.3 1.196 2.763 70
3.4330001 1.456 2.777 72
3.5339999 1.715 2.7720001 71
3.6440001 1.9859999 2.7780001 67
3.2839999 1.274 2.7650001 70
3.405 1.5369999 2.777 72
3.497 1.7970001 2.7720001 74
3.6029999 2.073 2.783 70
3.2679999 1.352 2.7679999 70
3.375 1.6160001 2.776 72
3.4660001 1.882 2.7780001 72
3.55 2.154 2.7820001 70
3.2449999 1.428 2.766 69
3.3440001 1.694 2.776 73
3.424 1.962 2.7780001 71
3.4990001 2.2360001 2.7820001 68
3.2260001 1.506 2.7690001 69
3.313 1.774 2.7780001 72
3.381 2.0420001 2.7780001 73
3.4449999 2.3150001 2.7820001 69
3.201 1.5829999 2.7679999 69
3.276 1.851 2.776 73
3.3399999 2.1229999 2.7820001 73
3.3929999 2.3970001 2.786 72
3.1760001 1.661 2.77 70
3.2420001 1.9299999 2.777 73
3.2909999 2.2 2.78 71
3.3340001 2.473 2.7839999 68
3.1530001 1.74 2.7750001 72
3.2019999 2.006 2.776 72
3.2360001 2.2720001 2.7739999 69
3.2780001 2.5510001 2.7869999 70
3.1270001 1.8200001 2.7780001 69
3.1659999 2.085 2.779 73
3.1989999 2.3570001 2.786 72
3.2179999 2.625 2.7880001 71
3.092 1.8940001 2.7750001 70
3.128 2.1630001 2.783 72
3.1500001 2.4330001 2.789 72
3.158 2.6989999 2.7909999 69
3.0610001 1.971 2.777 69
3.0829999 2.237 2.7820001 72
3.089 2.5009999 2.783 75
3.095 2.7709999 2.7920001 71
3.0339999 2.053 2.7850001 68
3.0380001 2.312 2.7820001 69
3.0439999 2.5810001 2.7920001 74
3.0280001 2.839 2.7920001 71
2.9949999 2.1270001 2.783 69
2.9960001 2.3889999 2.7869999 69
2.9809999 2.648 2.7869999 66
2.9590001 2.905 2.79 68
2.9549999 2.2019999 2.783 71
2.947 2.4630001 2.7869999 72
2.9200001 2.7160001 2.786 67
2.8929999 2.974 2.7939999 72
2.9170001 2.279 2.7850001 69
2.8929999 2.533 2.7839999 71
2.868 2.7920001 2.7939999 74
2.823 3.039 2.7950001 72
2.872 2.352 2.7839999 71
2.8499999 2.612 2.793 71
2.806 2.8599999 2.7939999 74
2.7520001 3.1010001 2.7950001 70
2.8299999 2.428 2.7869999 71
2.7950001 2.681 2.793 72
2.733 2.915 2.7850001 67
2.6819999 3.165 2.799 72
2.783 2.5 2.7850001 69
2.7360001 2.747 2.789 72
2.674 2.9860001 2.7920001 67
2.608 3.224 2.8 72
2.7320001 2.5699999 2.783 64
2.6830001 2.8210001 2.7939999 72
2.6110001 3.052 2.7950001 67
2.53 3.279 2.7980001 70
2.6889999 2.6489999 2.7909999 64
2.6259999 2.8889999 2.796 68
2.54 3.112 2.7920001 65
2.4579999 3.3399999 2.8039999 71
2.6370001 2.721 2.79 69
2.5610001 2.9519999 2.793 73
2.4719999 3.1730001 2.7939999 67
0.94199997 1.3430001 1.11 61
2.5810001 2.79 2.789 64
2.5039999 3.0239999 2.799 72
2.4059999 3.237 2.8 74
0.88999999 1.3329999 1.085 81
2.53 2.865 2.7939999 66
2.441 3.0880001 2.8 71
0.95099998 1.342 1.141 2
0.84899998 1.335 1.072 80
2.47 2.9300001 2.7909999 66
2.3729999 3.148 2.7980001 71
0.89899999 1.332 1.114 61
0.81099999 1.342 1.064 88
2.411 2.9990001 2.7920001 67
2.3069999 3.2119999 2.8010001 71
0.85900003 1.337 1.101 72
0.78299999 1.364 1.067 97
2.3559999 3.075 2.8010001 67
0.91600001 1.339 1.147 8
0.82099998 1.345 1.091 73
0.74599999 1.3710001 1.0599999 80
2.2950001 3.1440001 2.803 66
0.87199998 1.34 1.127 60
0.787 1.358 1.086 82
0.70700002 1.373 1.05 85
2.2279999 3.2060001 2.8010001 66
0.83499998 1.35 1.117 65
0.75400001 1.373 1.0829999 71
0.676 1.3890001 1.051 89
0.884 1.3380001 1.146 22
0.79799998 1.36 1.107 73
0.71700001 1.3789999 1.074 75
0.64600003 1.406 1.054 82
0.847 1.349 1.1339999 65
0.76499999 1.375 1.101 76
0.68199998 1.388 1.067 89
0.61400002 1.42 1.054 83
0.80800003 1.358 1.1210001 62
0.72500002 1.377 1.0880001 73
0.65499997 1.4119999 1.074 80
0.597 1.47 1.082 66
0.77200001 1.37 1.1109999 77
0.68800002 1.383 1.077 80
0.62199998 1.424 1.071 69
0.56900001 1.4960001 1.092 9
0.73500001 1.378 1.099 66
0.65799999 1.402 1.077 84
0.60000002 1.4630001 1.089 61
1.217 3.427 2.484 59
0.69599998 1.383 1.086 73
0.62699997 1.421 1.0779999 69
0.57700002 1.5039999 1.108 15
1.13 3.4230001 2.4649999 59
0.66500002 1.401 1.0829999 76
0.602 1.455 1.09 52
1.226 3.4260001 2.503 60
1.048 3.427 2.4530001 58
0.63200003 1.416 1.079 66
0.58099997 1.499 1.11 27
1.142 3.431 2.4860001 61
0.963 3.4230001 2.4360001 58
0.60399997 1.4450001 1.086 50
1.238 3.4289999 2.5120001 58
1.0549999 3.427 2.4630001 62
0.88099998 3.4219999 2.4230001 57
0.58399999 1.4960001 1.109 35
1.148 3.4260001 2.4849999 60
0.96899998 3.4219999 2.441 60
0.80199999 3.4260001 2.415 60
1.243 3.4189999 2.5020001 56
1.0599999 3.424 2.4579999 60
0.88599998 3.4230001 2.425 63
0.72100002 3.424 2.404 64
1.152 3.418 2.471 54
0.97399998 3.425 2.437 60
0.80400002 3.425 2.411 61
0.64099997 3.4189999 2.391 62
1.0650001 3.428 2.45 56
0.889 3.428 2.418 62
0.722 3.4260001 2.398 63
0.56400001 3.425 2.388 64
0.97399998 3.421 2.418 55
0.80400002 3.4200001 2.3929999 59
0.64300001 3.4319999 2.3900001 65
0.486 3.424 2.382 66
0.88499999 3.4170001 2.3900001 61
0.72299999 3.4330001 2.3840001 61
0.56300002 3.4260001 2.375 62
0.41 3.4260001 2.378 60
0.801 3.424 2.372 62
0.639 3.4260001 2.3629999 61
0.48300001 3.425 2.3640001 62
0.33399999 3.4260001 2.3740001 66
0.71499997 3.4230001 2.3499999 60
0.55699998 3.427 2.349 61
0.405 3.428 2.3570001 63
0.257 3.4170001 2.365 62
0.63 3.421 2.3280001 60
0.47600001 3.4300001 2.3369999 61
0.32600001 3.4200001 2.345 62
0.18099999 3.4159999 2.3640001 61
0.546 3.4260001 2.312 61
0.396 3.4349999 2.3280001 61
0.248 3.4170001 2.336 62
0.107 3.4230001 2.369 65
0.46200001 3.425 2.2950001 63
0.315 3.4289999 2.313 62
0.171 3.424 2.336 62
0.030999999 3.4219999 2.368 64
0.37900001 3.4200001 2.276 61
0.234 3.415 2.2939999 60
0.093000002 3.421 2.3299999 62
-0.043000001 3.4200001 2.3699999 64
0.296 3.4230001 2.2650001 64
0.155 3.4289999 2.2950001 64
0.016000001 3.421 2.3269999 62
-0.118 3.421 2.3729999 63
0.213 3.4100001 2.243 59
0.075000003 3.425 2.286 62
-0.059999999 3.4230001 2.3280001 63
-0.193 3.421 2.3770001 68
0.131 3.4230001 2.24 65
-0.0040000002 3.4330001 2.2850001 63
-0.13699999 3.4289999 2.3310001 62
-0.26699999 3.4159999 2.3789999 63
0.048999999 3.425 2.2320001 65
-0.083999999 3.4300001 2.2780001 62
-0.214 3.4189999 2.325 63
-0.34200001 3.4119999 2.382 62
0 0 0 50
-0.163 3.428 2.2739999 64
-0.292 3.421 2.3280001 62
-0.41800001 3.418 2.3940001 62
-0.114 3.4170001 2.211 64
-0.243 3.4260001 2.2709999 66
-0.36899999 3.421 2.3329999 62
-0.49200001 3.4119999 2.3989999 60
-0.197 3.4230001 2.2090001 67
-0.324 3.4260001 2.27 69
-0.447 3.4200001 2.3369999 62
-0.56900001 3.414 2.4100001 64
-0.27900001 3.4159999 2.2 64
-0.40400001 3.4230001 2.2690001 65
-0.52600002 3.424 2.345 63
-0.64600003 3.4170001 2.4230001 63
-0.36300001 3.4189999 2.1989999 64
-0.48500001 3.4260001 2.273 65
-0.60399997 3.421 2.349 63
-0.722 3.411 2.431 62
-0.44600001 3.4159999 2.1949999 64
-0.56699997 3.425 2.2750001 63
-0.33700001 1.689 1.164 4
-0.38499999 1.643 1.177 49
-0.53100002 3.425 2.2 66
-0.32300001 1.709 1.137 4
-0.366 1.637 1.133 54
-0.421 1.6390001 1.182 111
-0.61400002 3.415 2.1949999 61
-0.35299999 1.651 1.102 59
-0.398 1.6109999 1.12 65
-0.493 1.758 1.275 78
-0.345 1.683 1.0829999 86
-0.382 1.6059999 1.074 51
-0.433 1.601 1.118 72
-0.53200001 1.7539999 1.281 63
-0.37200001 1.6160001 1.041 53
-0.41999999 1.597 1.073 67
-0.52200001 1.77 1.243 73
-0.57200003 1.749 1.2869999 41
-0.40099999 1.568 1.013 55
-0.456 1.585 1.069 74
-0.565 1.768 1.249 23
-1.197 3.405 2.526 58
-0.44400001 1.579 1.023 67
-0.493 1.575 1.067 4
-1.175 3.4100001 2.425 62
-1.283 3.414 2.553 61
-0.48300001 1.569 1.021 68
-1.156 3.4089999 2.3239999 59
-1.263 3.4159999 2.447 59
-1.365 3.4089999 2.572 59
-0.52600002 1.574 1.028 3
-1.248 3.4159999 2.342 61
-1.346 3.4059999 2.4590001 56
-1.452 3.4119999 2.598 58
-1.235 3.414 2.2409999 63
-1.34 3.4189999 2.3599999 60
-1.4349999 3.405 2.4790001 56
-1.539 3.4119999 2.6240001 57
-1.329 3.4130001 2.2539999 61
-1.431 3.4170001 2.3759999 59
-1.527 3.408 2.503 56
-1.628 3.4130001 2.652 58
-1.426 3.4170001 2.2709999 56
-1.527 3.4189999 2.3970001 58
-1.618 3.4059999 2.526 56
-1.7029999 3.382 2.6570001 56
-1.523 3.4130001 2.2839999 57
-1.624 3.421 2.4189999 60
-1.715 3.4100001 2.5539999 57
-1.738 3.2750001 2.602 41
-1.6210001 3.4089999 2.3 58
-1.719 3.4119999 2.4360001 58
-1.813 3.4130001 2.5840001 56
-1.8150001 3.25 2.6129999 55
-1.722 3.4059999 2.3180001 58
-1.821 3.414 2.4619999 56
-1.9119999 3.4130001 2.6129999 55
-1.892 3.2249999 2.625 66
-1.829 3.4100001 2.3429999 57
-1.925 3.4159999 2.49 54
-2.0120001 3.4119999 2.6440001 57
-1.961 3.1849999 2.6270001 59
-1.938 3.4119999 2.369 55
-2.0280001 3.411 2.5150001 57
-2.1010001 3.3870001 2.658 53
-2.0320001 3.148 2.632 57
-2.053 3.4189999 2.4000001 59
-2.1400001 3.415 2.549 58
-2.1530001 3.3039999 2.628 51
-2.2420001 3.316 2.813 72
-2.165 3.4159999 2.4260001 57
-2.2550001 3.4189999 2.586 56
-2.2149999 3.2390001 2.612 56
-2.3150001 3.2720001 2.8169999 71
-2.2850001 3.4189999 2.46 58
-2.3670001 3.4130001 2.6170001 55
-2.3740001 3.312 2.711 70
-2.3840001 3.223 2.8180001 70
-2.402 3.411 2.4879999 57
-2.4860001 3.4119999 2.655 56
-2.5339999 3.372 2.803 68
-2.447 3.165 2.812 71
-2.5350001 3.4219999 2.533 57
-2.559 3.346 2.645 49
-2.6170001 3.3269999 2.8110001 70
-2.517 3.1159999 2.8150001 70
-2.665 3.421 2.573 55
-2.6110001 3.2539999 2.6140001 55
-2.697 3.2750001 2.8139999 69
-2.5810001 3.0610001 2.813 69
-2.7909999 3.408 2.6059999 54
-2.7490001 3.2679999 2.671 61
-2.7720001 3.2179999 2.8150001 68
-2.6389999 2.9979999 2.8069999 70
-2.931 3.4070001 2.652 53
-2.971 3.369 2.8050001 69
-2.8429999 3.155 2.812 67
-2.7049999 2.9449999 2.8099999 69
-3.0020001 3.3239999 2.6359999 43
-3.0569999 3.3080001 2.8069999 70
-2.9119999 3.0899999 2.809 65
-2.7650001 2.8859999 2.809 68
-3.0780001 3.2460001 2.625 55
-3.148 3.2520001 2.816 74
-2.984 3.029 2.8099999 67
-2.822 2.823 2.8039999 70
-3.3629999 3.3800001 2.7920001 69
-3.2179999 3.1719999 2.806 69
-3.046 2.9579999 2.8039999 67
-2.8570001 2.7390001 2.779 71
-3.4879999 3.339 2.819 74
0 0 0 50
-3.119 2.8959999 2.8069999 68
-2.9460001 2.7079999 2.809 72
-3.573 3.2590001 2.8169999 71
-3.3770001 3.033 2.809 73
-3.1819999 2.826 2.8050001 67
-2.9960001 2.638 2.802 68
-3.6530001 3.174 2.813 66
-3.454 2.961 2.8110001 72
-3.2460001 2.756 2.803 68
-3.056 2.579 2.806 70
-3.743 3.096 2.8169999 74
-3.5179999 2.8770001 2.8039999 66
-3.3150001 2.6900001 2.8080001 69
-3.1099999 2.5139999 2.8050001 68
-3.822 3.0090001 2.8139999 74
-3.5969999 2.8039999 2.809 71
-3.3729999 2.6159999 2.8039999 67
-3.1589999 2.4449999 2.8 71
-3.902 2.9230001 2.8150001 74
-3.664 2.7219999 2.8069999 70
-3.4300001 2.54 2.8010001 66
-3.2160001 2.382 2.8050001 71
-3.9790001 2.832 2.813 77
-3.7290001 2.6389999 2.806 73
-3.4909999 2.467 2.803 69
-3.266 2.3150001 2.8039999 70
-4.0300002 2.7249999 2.7969999 79
-3.79 2.552 2.8010001 72
-3.5439999 2.3889999 2.8 67
-3.3069999 2.24 2.796 71
-1.7640001 1.132 1.2029999 95
-1.7589999 1.126 1.278 0
-3.596 2.3099999 2.7969999 67
-3.3540001 2.171 2.7950001 71
-1.719 1.045 1.152 76
-1.734 1.054 1.2410001 71
-3.6500001 2.2309999 2.796 69
-3.404 2.1029999 2.7980001 70
-1.7180001 0.98900002 1.133 91
-1.723 0.99299997 1.214 75
-1.745 1.0140001 1.318 11
-3.4449999 2.0280001 2.793 70
-1.733 0.94300002 1.125 91
-1.732 0.94599998 1.2029999 82
-1.745 0.963 1.3 59
-3.4949999 1.96 2.7980001 70
-1.735 0.88999999 1.1109999 86
-1.727 0.89200002 1.184 77
-1.7410001 0.91100001 1.28 74
-1.811 0.96600002 1.432 5
-1.743 0.84200001 1.1 92
-1.737 0.847 1.175 97
-1.733 0.85799998 1.2589999 72
-1.819 0.921 1.421 16
-1.761 0.79900002 1.098 94
-1.749 0.80299997 1.168 98
-1.743 0.81599998 1.251 83
-1.848 0.88700002 1.428 41
-1.781 0.75700003 1.097 88
-1.765 0.76200002 1.166 90
-1.763 0.778 1.252 71
-1.892 0.86000001 1.446 43
-1.8099999 0.71899998 1.102 74
-1.788 0.72299999 1.168 76
-1.791 0.74400002 1.258 56
-3.6989999 1.5880001 2.7980001 44
-4.0500002 1.497 2.4400001 69
-4.046 1.528 2.6159999 64
-4.0019999 1.558 2.783 71
-3.724 1.507 2.79 72
-4.0469999 1.387 2.414 67
-4.0419998 1.421 2.5880001 65
-4.027 1.467 2.7739999 80
-3.7550001 1.427 2.7869999 69
-4.0409999 1.278 2.3889999 67
-4.0450001 1.318 2.5669999 63
-4.0450001 1.373 2.7620001 69
-3.78 1.346 2.7809999 70
-4.0469999 1.173 2.372 67
-4.0469999 1.216 2.5469999 64
-4.0479999 1.274 2.74 66
-3.822 1.271 2.7880001 68
-4.0510001 1.0700001 2.3559999 67
-4.0489998 1.115 2.527 68
-4.053 1.178 2.7219999 66
-3.849 1.1900001 2.7850001 70
-4.0440001 0.96600002 2.336 73
-4.0539999 1.017 2.513 70
-4.0450001 1.079 2.698 65
-3.8729999 1.108 2.7809999 70
-4.0450001 0.86400002 2.3210001 67
-4.052 0.91799998 2.4949999 70
-4.0409999 0.98299998 2.6760001 65
-3.905 1.029 2.7850001 70
-4.0469999 0.764 2.309 73
-4.046 0.81900001 2.477 69
-4.0450001 0.889 2.6619999 65
-3.928 0.94599998 2.7820001 70
-4.0419998 0.66399997 2.2939999 73
-4.0510001 0.72299999 2.4660001 74
-4.0479999 0.796 2.648 65
-3.9449999 0.86199999 2.777 71
-4.039 0.565 2.2820001 76
-4.0489998 0.62800002 2.4530001 72
-4.039 0.70200002 2.6289999 66
-3.9690001 0.77899998 2.7780001 72
-4.039 0.46799999 2.273 72
-4.0409999 0.53100002 2.438 72
-4.0450001 0.61199999 2.6199999 65
-3.9890001 0.69599998 2.777 73
-4.0409999 0.37099999 2.267 75
-4.046 0.43799999 2.4319999 71
-4.04 0.51999998 2.6059999 65
-3.9990001 0.611 2.77 71
-4.0419998 0.27399999 2.2620001 76
-4.046 0.34400001 2.424 73
-4.0339999 0.428 2.5910001 67
-4.0209999 0.52700001 2.773 75
-4.0409999 0.178 2.257 75
-4.0430002 0.25 2.4159999 71
-4.0440001 0.33899999 2.5899999 70
-4.026 0.44100001 2.7639999 74
-4.046 0.082999997 2.257 74
-4.052 0.15800001 2.4170001 73
-4.04 0.249 2.5799999 64
-4.026 0.354 2.7539999 72
0 0 0 50
-4.0469999 0.064999998 2.411 73
-4.0409999 0.15899999 2.5739999 70
-4.0339999 0.26899999 2.7509999 73
-4.0440001 -0.108 2.2550001 77
-4.0510001 -0.027000001 2.4100001 75
-4.0409999 0.07 2.569 65
-4.04 0.182 2.7460001 73
-4.0450001 -0.20299999 2.256 73
-4.0469999 -0.12 2.4070001 72
-4.0380001 -0.018999999 2.5639999 65
-4.0380001 0.096000001 2.7379999 72
-4.0440001 -0.29899999 2.2579999 75
-4.046 -0.212 2.4070001 72
0 0 0 50
-4.046 0.0099999998 2.7379999 70
-4.0430002 -0.39500001 2.2620001 76
-4.0409999 -0.30500001 2.4059999 72
-4.0500002 -0.198 2.5669999 70
-4.0489998 -0.075999998 2.7349999 71
-4.0380001 -0.49000001 2.2650001 72
-4.0450001 -0.398 2.411 71
0 0 0 50
-4.0440001 -0.162 2.7279999 69
-4.0479999 -0.58899999 2.277 73
-4.04 -0.491 2.4130001 69
-4.0469999 -0.37900001 2.5669999 68
-4.0500002 -0.249 2.73 71
-4.0479999 -0.68599999 2.286 70
0 0 0 50
-4.0450001 -0.46900001 2.5680001 64
-4.0489998 -0.336 2.7279999 69
-4.0430002 -0.78399998 2.2920001 72
-4.053 -0.68199998 2.4330001 72
-4.0489998 -0.56099999 2.575 64
-4.0469999 -0.42399999 2.727 70
0 0 0 50
-4.053 -0.77700001 2.4419999 73
-4.0430002 -0.65100002 2.576 65
-4.0479999 -0.51200002 2.7279999 71
-4.0510001 -0.98400003 2.3210001 72
-4.0440001 -0.87199998 2.4460001 70
-4.0479999 -0.74400002 2.585 64
-4.0479999 -0.60100001 2.73 70
0 0 0 50
-4.0560002 -0.97100002 2.4649999 70
-4.0409999 -0.83600003 2.5880001 64
-4.0440001 -0.68900001 2.7309999 71
-4.0479999 -1.186 2.3499999 69
-4.053 -1.069 2.4760001 69
-4.0419998 -0.93000001 2.598 65
0 0 0 50
-4.0469999 -1.288 2.3670001 67
-4.053 -1.168 2.49 69
-4.0419998 -1.026 2.608 66
-4.039 -0.86900002 2.7379999 73
-4.0300002 -1.388 2.3759999 68
-4.0430002 -1.265 2.5 68
-4.0419998 -1.1210001 2.6199999 66
0 0 0 50
-3.957 -1.466 2.3540001 100
-4.039 -1.3660001 2.5150001 65
-4.0019999 -1.206 2.608 64
-4.0320001 -1.052 2.7490001 76
-3.9530001 -1.569 2.3729999 94
-4.0440001 -1.47 2.5369999 64
-3.9159999 -1.276 2.5650001 62
-4.0209999 -1.143 2.7520001 75
-3.954 -1.678 2.398 94
-4.046 -1.576 2.559 66
0 0 0 50
-4.0009999 -1.232 2.7490001 75
-4.0120001 -1.813 2.4590001 63
-4.0440001 -1.682 2.5799999 65
-3.908 -1.4680001 2.5940001 73
-3.9820001 -1.322 2.7490001 72
0 0 0 50
-4 -1.771 2.576 62
-3.977 -1.595 2.6589999 74
-3.9619999 -1.411 2.7479999 69
-4.0339999 -2.052 2.5320001 66
-3.9349999 -1.849 2.5599999 58
-4.04 -1.726 2.721 72
-3.9330001 -1.498 2.744 72
0 0 0 50
-3.8800001 -1.932 2.55 64
-4.0229998 -1.825 2.733 81
-3.915 -1.59 2.7460001 70
0 0 0 0
0 0 0 0
-3.984 -1.916 2.73 74
-3.8859999 -1.678 2.7449999 69
0 0 0 50
-0.852 -0.47299999 0.57300001 12
0 0 0 0
-3.8529999 -1.765 2.7409999 71
-0.84899998 -0.53500003 0.56300002 14
-0.84399998 -0.49399999 0.57499999 12
-0.833 -0.447 0.58200002 12
-3.8210001 -1.852 2.7390001 69
0 0 0 50
-0.83899999 -0.51700002 0.579 12
-0.84200001 -0.47600001 0.59500003 12
0 0 0 0
-0.86400002 -0.602 0.59200001 10
-0.85000002 -0.55000001 0.59500003 8
-0.83899999 -0.49900001 0.59899998 12
0 0 0 50
-0.71700001 -0.52399999 0.5 16
-0.84200001 -0.57300001 0.59799999 4
-0.83700001 -0.52399999 0.60500002 11
-0.81400001 -0.463 0.59899998 12
-0.68199998 -0.523 0.484 6
-0.72000003 -0.514 0.51999998 15
-0.81199998 -0.53399998 0.59500003 5
-0.82800001 -0.49599999 0.616 13
-0.63999999 -0.514 0.463 9
-0.70200002 -0.52499998 0.51499999 6
-0.73500001 -0.50700003 0.546 9
0 0 0 50
-0.61299998 -0.51599997 0.45199999 16
-0.662 -0.51899999 0.49399999 6
-0.704 -0.509 0.52999997 10
-0.76200002 -0.50300002 0.579 5
-0.60299999 -0.53100002 0.454 9
-0.61900002 -0.50800002 0.47 15
-0.67500001 -0.51099998 0.51599997 7
-0.71399999 -0.49399999 0.55000001 11
-0.56400001 -0.51999998 0.43399999 13
-0.61199999 -0.52600002 0.47299999 9
-0.63499999 -0.50300002 0.493 8
-0.69199997 -0.50199997 0.54000002 10
-0.546 -0.52700001 0.43000001 15
-0.588 -0.528 0.46399999 9
-0.61000001 -0.50700003 0.48199999 14
-0.667 -0.50700003 0.52700001 9
-0.54900002 -0.55500001 0.44299999 9
-0.55400002 -0.52100003 0.44600001 13
-0.588 -0.51099998 0.47299999 8
-0.62099999 -0.49399999 0.498 10
-0.528 -0.55800003 0.43599999 16
-0.542 -0.53399998 0.44600001 12
-0.55900002 -0.50800002 0.458 11
-0.60799998 -0.50599998 0.495 10
-0.51599997 -0.57099998 0.43700001 14
-0.53600001 -0.55199999 0.45100001 14
-0.54900002 -0.52200001 0.458 13
-0.57999998 -0.50599998 0.47999999 9
-0.52600002 -0.60900003 0.458 6
-0.52600002 -0.56599998 0.45300001 14
-0.542 -0.53799999 0.461 14
-0.56199998 -0.51300001 0.47299999 13
-0.55800003 -0.676 0.5 5
-0.523 -0.588 0.461 5
-0.52700001 -0.54799998 0.45899999 15
-0.55000001 -0.52399999 0.47 14
-1.95 -2.473 1.798 12
-0.53899997 -0.63499999 0.48800001 9
-0.52399999 -0.56999999 0.46599999 8
-0.54100001 -0.53899997 0.472 16
-1.859 -2.4690001 1.766 76
-0.61699998 -0.76099998 0.57499999 1
-0.53399998 -0.60699999 0.486 7
-0.52600002 -0.54799998 0.46799999 15
0 0 0 50
-1.915 -2.471 1.8329999 13
-0.56599998 -0.67299998 0.52700001 8
-0.52399999 -0.57099998 0.47600001 7
-1.66 -2.4230001 1.684 89
-1.8380001 -2.4849999 1.812 72
-0.60100001 -0.74900001 0.57499999 0
-0.52899998 -0.60399997 0.491 10
-1.58 -2.421 1.659 86
-1.712 -2.425 1.7410001 71
-1.895 -2.471 1.863 15
-0.57999998 -0.69300002 0.55199999 6
-1.505 -2.4219999 1.6390001 88
-1.628 -2.4200001 1.71 83
-1.819 -2.4860001 1.84 69
-2.2939999 -2.869 2.2349999 10
-1.432 -2.4230001 1.6210001 85
-1.554 -2.424 1.688 92
-1.688 -2.418 1.7589999 63
-1.882 -2.467 1.882 102
-1.3660001 -2.431 1.608 73
-1.476 -2.418 1.661 83
-1.61 -2.4189999 1.7309999 74
-1.8660001 -2.563 1.9170001 49
-1.2970001 -2.4349999 1.5930001 38
-1.405 -2.4219999 1.642 78
-1.533 -2.4200001 1.7029999 87
-1.676 -2.4159999 1.772 90
-0.50700003 -1.005 0.65100002 1
-1.339 -2.4319999 1.627 68
-1.456 -2.418 1.675 87
-1.598 -2.418 1.7410001 78
-1.268 -2.6589999 1.706 1
-0.52499998 -1.007 0.66600001 10
-1.386 -2.4219999 1.654 80
-1.5190001 -2.418 1.71 93
-1.284 -2.8510001 1.814 30
-0.49599999 -1.0039999 0.65600002 1
-0.54299998 -1.002 0.67400002 4
-1.444 -2.418 1.681 87
-1.214 -2.8640001 1.807 74
-1.255 -2.6889999 1.739 1
-0.514 -1 0.66399997 4
-1.373 -2.424 1.6569999 81
-1.14 -2.8610001 1.7920001 74
-1.257 -2.8570001 1.83 73
-0.48699999 -1.003 0.65799999 1
-0.54299998 -1.011 0.68099999 12
-1.067 -2.858 1.778 72
-1.183 -2.8599999 1.814 79
-1.294 -2.823 1.829 4
-0.50599998 -0.99800003 0.662 4
-0.99900001 -2.869 1.773 72
-1.11 -2.862 1.799 69
-1.233 -2.858 1.83 63
-0.484 -1.0089999 0.66000003 1
-0.92799997 -2.8670001 1.761 66
-1.038 -2.8629999 1.785 71
-1.158 -2.859 1.811 65
-1.284 -2.8469999 1.835 12
-0.86000001 -2.868 1.753 66
-0.96700001 -2.8629999 1.772 74
-1.084 -2.8610001 1.793 67
-1.2130001 -2.8629999 1.821 70
-0.79400003 -2.8759999 1.749 63
-0.898 -2.868 1.761 66
-1.01 -2.8570001 1.773 64
-1.135 -2.8610001 1.7970001 75
-0.72600001 -2.8710001 1.739 59
-0.829 -2.869 1.751 65
-0.94199997 -2.869 1.7640001 61
-1.0599999 -2.8610001 1.775 83
-0.66000003 -2.869 1.7309999 64
-0.76200002 -2.8729999 1.742 67
-0.87099999 -2.869 1.749 55
-0.986 -2.8629999 1.756 70
-0.59399998 -2.872 1.727 66
-0.69300002 -2.8670001 1.729 65
-0.801 -2.8699999 1.735 64
-0.91399997 -2.8670001 1.74 73
-0.52899998 -2.868 1.721 69
-0.62699997 -2.8670001 1.72 62
-0.73000002 -2.8670001 1.72 64
-0.84100002 -2.869 1.722 65
-0.46399999 -2.8640001 1.714 67
-0.56099999 -2.8710001 1.714 72
-0.66100001 -2.8640001 1.706 62
-0.76999998 -2.8670001 1.705 64
-0.39399999 -2.8169999 1.682 150
-0.495 -2.8699999 1.707 67
-0.59200001 -2.8610001 1.693 63
-0.699 -2.868 1.691 68
-0.338 -2.8699999 1.712 63
-0.42699999 -2.848 1.687 91
-0.52600002 -2.8640001 1.6849999 59
-0.62900001 -2.868 1.675 67
-0.25 -2.598 1.549 17
-0.366 -2.869 1.6950001 70
-0.45899999 -2.858 1.6720001 76
-0.55900002 -2.865 1.66 71
-0.20200001 -2.7149999 1.618 10
-0.29499999 -2.8039999 1.652 42
-0.38800001 -2.8280001 1.646 126
-0.49000001 -2.8670001 1.65 62
-0.14300001 -2.7079999 1.614 11
-0.226 -2.73 1.605 10
-0.32499999 -2.8440001 1.648 73
-0.41 -2.7850001 1.592 146
-0.083999999 -2.7049999 1.613 11
-0.167 -2.7539999 1.6160001 10
-0.248 -2.7130001 1.566 17
-0.35299999 -2.8599999 1.624 68
-0.026000001 -2.704 1.614 10
-0.106 -2.756 1.6160001 11
-0.191 -2.7920001 1.6059999 10
-0.27000001 -2.7090001 1.529 30
0.030999999 -2.701 1.615 10
-0.045000002 -2.7539999 1.613 10
-0.12800001 -2.796 1.604 10
-0.21699999 -2.849 1.6 20
0.089000002 -2.6949999 1.613 10
0.014 -2.757 1.615 10
-0.064999998 -2.8050001 1.605 10
-0.15000001 -2.8510001 1.594 24
0.147 -2.698 1.619 11
0.075000003 -2.7539999 1.614 11
-0.001 -2.812 1.6059999 10
-0.082999997 -2.858 1.592 24
0.20299999 -2.681 1.613 10
0.13500001 -2.75 1.612 10
0.061999999 -2.822 1.61 11
-0.016000001 -2.8570001 1.585 25
0 0 0 50
0.19599999 -2.75 1.614 10
0.126 -2.8180001 1.6059999 11
0.050000001 -2.858 1.581 29
0.31799999 -2.668 1.6160001 10
0.25600001 -2.7390001 1.61 10
0.19 -2.813 1.603 11
0.118 -2.8570001 1.577 32
0.373 -2.651 1.612 10
0.31600001 -2.7320001 1.61 10
0.25400001 -2.8110001 1.602 11
0.185 -2.8540001 1.573 40
0.42899999 -2.6370001 1.6109999 10
0.377 -2.7349999 1.6160001 10
0.31900001 -2.8169999 1.6059999 11
0.25299999 -2.8570001 1.572 43
0.48100001 -2.6099999 1.602 11
0.43700001 -2.72 1.612 10
0.38299999 -2.8069999 1.603 11
0.322 -2.865 1.575 46
0.53100002 -2.573 1.587 16
0.49700001 -2.7160001 1.6160001 11
0.449 -2.809 1.607 10
0.38999999 -2.8610001 1.573 46
0.58099997 -2.5420001 1.5779999 20
0.55699998 -2.701 1.613 10
0.51300001 -2.799 1.605 10
0.458 -2.855 1.571 46
0.64700001 -2.579 1.61 22
0.583 -2.5469999 1.528 19
0.57800001 -2.7909999 1.605 10
0.52899998 -2.8610001 1.576 48
0.77499998 -2.8299999 1.779 33
0.639 -2.533 1.527 20
0.58999997 -2.5580001 1.477 17
0.59600002 -2.845 1.5700001 12
0.84500003 -2.849 1.803 80
0.73299998 -2.6570001 1.6109999 10
0.64999998 -2.55 1.478 22
0.59399998 -2.5339999 1.402 17
0.91500002 -2.859 1.823 76
0.78500003 -2.622 1.6 10
0.71899998 -2.573 1.497 32
0.66600001 -2.5639999 1.423 50
0.98000002 -2.855 1.835 70
0.838 -2.5899999 1.591 11
0.80000001 -2.6300001 1.539 22
0.73100001 -2.5639999 1.428 70
1.049 -2.8570001 1.852 71
0.89399999 -2.5680001 1.5880001 16
0.88700002 -2.6930001 1.585 11
0.796 -2.5610001 1.432 71
1.12 -2.862 1.872 70
0.96100003 -2.5780001 1.607 20
0.95999998 -2.7060001 1.602 9
0.87 -2.5799999 1.45 41
1.189 -2.8570001 1.886 72
1.1 -2.7639999 1.737 36
1.026 -2.6919999 1.605 10
0.93699998 -2.5769999 1.457 67
1.262 -2.862 1.9069999 65
1.2 -2.8329999 1.795 136
1.09 -2.6760001 1.607 9
1.012 -2.5880001 1.472 28
1.3329999 -2.8599999 1.926 70
1.284 -2.8540001 1.825 50
1.152 -2.6530001 1.607 9
1.17 -2.793 1.6 10
1.41 -2.8640001 1.949 80
1.363 -2.8599999 1.847 67
1.2079999 -2.615 1.598 10
1.243 -2.78 1.605 9
1.482 -2.858 1.9680001 75
1.442 -2.862 1.868 66
1.257 -2.566 1.5829999 17
1.309 -2.7509999 1.602 10
1.563 -2.865 1.9960001 67
1.518 -2.8559999 1.8839999 63
1.334 -2.5739999 1.604 28
1.381 -2.7309999 1.604 9
1.642 -2.8659999 2.0209999 65
1.599 -2.8540001 1.904 68
1.554 -2.835 1.785 36
1.452 -2.7079999 1.6059999 10
1.723 -2.865 2.046 61
1.692 -2.869 1.938 61
1.651 -2.855 1.819 64
1.4910001 -2.628 1.576 13
1.809 -2.869 2.0769999 61
1.776 -2.8670001 1.961 61
1.74 -2.855 1.84 60
1.518 -2.533 1.5369999 45
1.893 -2.8670001 2.1040001 59
1.865 -2.869 1.989 64
1.836 -2.8629999 1.87 56
1.636 -2.5869999 1.5880001 35
1.984 -2.872 2.1389999 56
1.957 -2.869 2.017 59
1.9299999 -2.8640001 1.896 57
1.692 -2.539 1.58 41
2.076 -2.875 2.1730001 59
2.053 -2.8740001 2.0510001 57
2.0239999 -2.859 1.921 55
1.9529999 -2.7839999 1.757 61
2.164 -2.868 2.2030001 53
2.1459999 -2.869 2.079 55
2.131 -2.869 1.956 57
2.108 -2.858 1.83 52
2.26 -2.8670001 2.2379999 52
2.25 -2.8710001 2.115 54
2.2360001 -2.869 1.988 53
2.2190001 -2.8610001 1.862 51
2.3599999 -2.868 2.277 52
2.345 -2.862 2.1440001 56
2.336 -2.859 2.0150001 49
2.3369999 -2.868 1.898 51
2.4579999 -2.8629999 2.3139999 53
0 0 0 50
2.4519999 -2.8629999 2.0550001 48
2.2639999 -2.6459999 1.783 26
2.5650001 -2.8640001 2.358 53
2.5669999 -2.8659999 2.2260001 50
2.5699999 -2.8659999 2.095 49
2.575 -2.868 1.969 40
2.681 -2.8699999 2.408 51
2.681 -2.865 2.2690001 50
2.6830001 -2.8570001 2.1300001 48
2.698 -2.8629999 2.006 51
2.7939999 -2.868 2.4549999 51
2.8050001 -2.8670001 2.3169999 49
2.8150001 -2.8640001 2.1800001 48
2.832 -2.865 2.05 49
2.9170001 -2.8710001 2.5090001 51
2.934 -2.8710001 2.3699999 46
2.9460001 -2.8610001 2.2260001 46
2.974 -2.8670001 2.0969999 46
3.0420001 -2.8710001 2.5639999 48
3.0669999 -2.8710001 2.4230001 48
3.089 -2.8640001 2.28 46
3.1199999 -2.8670001 2.1470001 45
3.0869999 -2.7939999 2.5510001 53
3.201 -2.8670001 2.477 47
3.2449999 -2.8729999 2.342 45
3.2709999 -2.8640001 2.1989999 44
3.1229999 -2.7090001 2.5320001 63
3.3540001 -2.8740001 2.5439999 48
3.3900001 -2.865 2.3959999 44
3.4319999 -2.862 2.2550001 41
3.3710001 -2.802 2.684 72
3.4400001 -2.819 2.559 46
3.5539999 -2.8659999 2.461 43
3.6140001 -2.8699999 2.325 31
3.4579999 -2.7539999 2.7060001 73
3.4619999 -2.711 2.5280001 55
3.74 -2.8759999 2.54 32
3.8039999 -2.875 2.398 32
3.52 -2.6849999 2.7079999 72
0 0 0 50
3.8239999 -2.803 2.549 35
3.997 -2.872 2.471 32
3.5739999 -2.6099999 2.7060001 74
3.8499999 -2.75 2.7149999 72
3.8640001 -2.697 2.53 53
4.217 -2.878 2.559 33
3.6359999 -2.5380001 2.7079999 73
3.9200001 -2.671 2.7190001 72
4.2189999 -2.802 2.7149999 69
4.198 -2.72 2.503 35
3.6860001 -2.46 2.7049999 72
3.9820001 -2.586 2.7179999 73
4.2870002 -2.707 2.714 68
4.5669999 -2.8050001 2.677 46
3.7479999 -2.3889999 2.711 73
4.046 -2.503 2.721 72
4.3499999 -2.608 2.7119999 71
4.7020001 -2.7349999 2.7130001 69
3.799 -2.3099999 2.71 73
4.0949998 -2.4100001 2.7149999 74
4.4190001 -2.513 2.7149999 68
4.7690001 -2.6229999 2.711 64
3.8469999 -2.23 2.7079999 73
