# .PCD v0.7 - Point Cloud Data file format
VERSION 0.7
FIELDS x y z intensity
SIZE 4 4 4 4
TYPE F F F F
COUNT 1 1 1 1
WIDTH 1665
HEIGHT 1
VIEWPOINT 0 0 0 1 0 0 0
POINTS 1665
DATA ascii
-0.28600001 3.428 2.279 64
-0.428 3.428 2.2509999 64
-0.57700002 3.4230001 2.2279999 65
-0.226 3.4219999 2.309 65
-0.36300001 3.431 2.2850001 64
-0.50800002 3.425 2.2590001 63
-0.66000003 3.418 2.2409999 63
-0.30199999 3.424 2.3110001 66
-0.442 3.4360001 2.293 67
-0.58899999 3.424 2.27 62
-0.74400002 3.418 2.257 63
-0.37799999 3.427 2.3139999 66
-0.51800001 3.4219999 2.2909999 62
-0.671 3.4319999 2.2869999 64
-0.82999998 3.4219999 2.279 60
-0.45300001 3.427 2.3150001 67
-0.59799999 3.431 2.3039999 67
-0.75300002 3.427 2.2980001 63
-0.91500002 3.4159999 2.296 62
-0.52999997 3.428 2.319 68
-0.676 3.425 2.309 64
-0.83399999 3.4200001 2.3080001 63
-1.0039999 3.424 2.322 61
-0.60699999 3.4289999 2.3239999 65
-0.75599998 3.4230001 2.3180001 62
-0.917 3.418 2.323 64
-1.089 3.415 2.3399999 58
-0.68300003 3.4159999 2.3199999 64
-0.83600003 3.4219999 2.329 70
-1.002 3.4219999 2.3440001 63
-1.179 3.4159999 2.3659999 57
-0.76099998 3.4170001 2.3280001 65
-0.91900003 3.425 2.3429999 63
-1.0880001 3.4219999 2.3640001 63
-1.271 3.4200001 2.3959999 59
-0.84100002 3.418 2.3369999 66
-1 3.4189999 2.3540001 63
-1.176 3.424 2.3859999 65
-1.362 3.414 2.421 57
-0.91900003 3.4119999 2.342 64
-1.085 3.4200001 2.3699999 63
-1.2640001 3.4230001 2.408 61
-1.455 3.414 2.4519999 58
-1.002 3.415 2.3540001 65
-1.1720001 3.4260001 2.391 65
-1.352 3.4170001 2.4289999 62
-1.553 3.4200001 2.4879999 59
-1.0829999 3.411 2.3629999 65
-1.2539999 3.4130001 2.401 63
-1.444 3.418 2.4549999 62
-1.65 3.418 2.5220001 59
-1.168 3.415 2.3789999 63
-1.346 3.424 2.428 64
-1.5369999 3.418 2.483 63
-0.73299998 1.431 1.071 11
-1.2539999 3.415 2.3940001 65
-1.433 3.4159999 2.4449999 61
-1.6289999 3.411 2.5079999 57
-0.745 1.375 1.045 37
-1.341 3.4159999 2.4100001 65
-1.523 3.4119999 2.4649999 63
-0.72600001 1.436 1.069 5
-0.74900001 1.309 1.011 51
-1.428 3.414 2.4260001 65
-1.622 3.4260001 2.5 63
-0.74299997 1.3890001 1.048 41
-0.76700002 1.27 0.99800003 65
-1.5190001 3.4159999 2.447 58
-0.72899997 1.455 1.073 2
-0.745 1.319 1.0089999 45
-0.77499998 1.2180001 0.97299999 58
-1.6109999 3.4170001 2.467 59
-0.74299997 1.403 1.046 41
-0.75999999 1.276 0.991 65
-0.79100001 1.182 0.96200001 61
-1.705 3.4159999 2.49 58
-0.74400002 1.33 1.0039999 41
-0.773 1.233 0.972 67
-0.80299997 1.141 0.94599998 56
-0.74699998 1.4170001 1.043 38
-0.75800002 1.2869999 0.98400003 63
-0.78200001 1.187 0.95099998 59
-0.82300001 1.114 0.94199997 61
-0.745 1.339 0.99599999 38
-0.773 1.247 0.96600002 68
-0.79799998 1.153 0.93900001 52
-0.84399998 1.09 0.94099998 62
-0.75999999 1.2970001 0.97500002 63
-0.78299999 1.202 0.94400001 58
-0.81599998 1.124 0.93099999 62
-0.86299998 1.062 0.93599999 54
-0.77499998 1.257 0.95599997 64
-0.79699999 1.164 0.92900002 48
-0.83399999 1.095 0.92400002 61
-0.89200002 1.048 0.94400001 63
-0.78200001 1.206 0.92900002 60
-0.81699997 1.138 0.92199999 56
-0.85699999 1.073 0.92299998 62
-0.935 1.048 0.96700001 79
-0.796 1.17 0.91299999 53
-0.83600003 1.11 0.91500002 67
-0.88 1.052 0.92400002 63
-0.98299998 1.052 0.99400002 77
-0.81599998 1.142 0.90399998 66
-0.85100001 1.079 0.90399998 58
-0.90899998 1.038 0.93000001 64
-1 1.022 0.99000001 79
-0.83200002 1.1109999 0.89300001 66
-0.87599999 1.059 0.90399998 57
-0.977 1.0650001 0.97500002 75
-1.0319999 1.008 1.001 72
-0.84899998 1.082 0.88300002 65
-0.90700001 1.048 0.912 68
-0.99400002 1.035 0.97000003 81
-1.043 0.972 0.99199998 53
-0.87400001 1.063 0.88200003 66
-0.963 1.062 0.94300002 97
-1.021 1.016 0.97500002 71
-1.064 0.94800001 0.995 9
-0.90499997 1.051 0.88800001 70
-1.005 1.0599999 0.96100003 71
-1.049 0.99699998 0.98100001 65
-3.05 2.5940001 2.803 70
-0.94999999 1.054 0.90700001 63
-1.0190001 1.027 0.95200002 69
-1.049 0.95300001 0.96200001 45
-3.0940001 2.5109999 2.7980001 70
-1.018 1.079 0.94700003 74
-1.053 1.0140001 0.96100003 76
-3.105 2.694 2.7950001 67
-3.145 2.4360001 2.8010001 69
-1.025 1.038 0.93000001 74
-1.05 0.96600002 0.93800002 58
-3.1670001 2.625 2.8 76
-3.187 2.3540001 2.7969999 68
-1.05 1.015 0.93000001 71
-1.0700001 0.94 0.93599999 24
-3.214 2.543 2.7939999 68
-3.2260001 2.2720001 2.7939999 70
-1.08 0.99800003 0.935 57
-3.2620001 2.737 2.8 67
-3.2639999 2.4630001 2.7909999 72
-3.2720001 2.1949999 2.7969999 70
-3.309 2.9200001 2.802 66
-3.3180001 2.658 2.796 67
-3.3180001 2.388 2.7950001 68
-3.316 2.118 2.8010001 69
-3.3770001 2.845 2.799 68
-3.3770001 2.5810001 2.7950001 67
-3.365 2.3080001 2.793 67
-3.348 2.033 2.796 69
-3.447 2.7709999 2.8 68
-3.4349999 2.5039999 2.796 67
-3.402 2.2219999 2.7850001 71
-3.3829999 1.951 2.7950001 67
-3.5109999 2.6919999 2.7980001 71
-3.4849999 2.4200001 2.79 66
-3.4560001 2.1470001 2.793 69
-3.414 1.868 2.793 67
-3.573 2.6110001 2.7950001 70
-3.543 2.342 2.7939999 66
-3.494 2.063 2.7880001 68
-3.4419999 1.784 2.79 68
-3.6370001 2.5309999 2.7950001 72
-3.589 2.257 2.789 67
-3.53 1.977 2.7839999 68
-3.477 1.705 2.7939999 69
-3.698 2.45 2.7950001 70
-3.645 2.177 2.793 50
-3.5710001 1.896 2.786 66
-3.4960001 1.617 2.786 69
-3.7490001 2.3610001 2.789 71
-1.8609999 1.0549999 1.408 21
-3.605 1.811 2.7839999 71
-3.5220001 1.535 2.786 69
-1.863 1.114 1.365 5
-1.877 1.008 1.403 23
-3.6459999 1.729 2.789 76
-3.552 1.454 2.79 69
-1.872 1.061 1.352 61
-1.91 0.97000003 1.41 5
-3.677 1.643 2.7869999 74
-3.572 1.37 2.789 69
-1.877 1.007 1.337 43
-3.8099999 1.826 2.7820001 58
-3.7060001 1.556 2.7850001 72
-3.569 1.279 2.7709999 71
-1.929 0.97799999 1.3559999 18
-3.848 1.738 2.78 73
-3.7320001 1.47 2.783 72
-3.6010001 1.201 2.7809999 68
-1.98 0.94700003 1.375 4
-3.885 1.648 2.7809999 67
-3.7539999 1.382 2.78 74
-3.619 1.118 2.7820001 67
-4.046 1.8200001 2.777 73
-3.9260001 1.5599999 2.7839999 74
-3.78 1.295 2.78 74
-3.6300001 1.034 2.779 68
-4.053 1.711 2.7520001 66
-3.9519999 1.467 2.779 73
-3.802 1.2079999 2.78 74
-3.6440001 0.95099998 2.779 65
-4.053 1.601 2.724 64
-3.9760001 1.373 2.7739999 75
-3.8199999 1.12 2.7780001 74
-3.6530001 0.86799997 2.777 68
-4.0549998 1.492 2.6989999 64
-4.0029998 1.28 2.773 79
-3.836 1.031 2.7750001 75
-3.6600001 0.78500003 2.776 67
-4.052 1.385 2.6730001 64
-4.027 1.187 2.77 79
-3.8499999 0.94199997 2.773 73
-3.6730001 0.704 2.78 67
-4.053 1.28 2.652 65
-4.033 1.0880001 2.7579999 78
-3.8670001 0.85500002 2.7739999 74
-3.675 0.62099999 2.776 66
-4.052 1.176 2.631 66
-4.0500002 0.99400002 2.7539999 76
-3.8759999 0.76599997 2.7720001 75
-3.677 0.53899997 2.7739999 67
-4.0560002 1.075 2.615 67
-4.053 0.89700001 2.7420001 74
-3.8800001 0.67699999 2.767 69
-3.677 0.456 2.7720001 70
-4.0510001 0.97299999 2.596 65
-4.0510001 0.79900002 2.73 68
-3.888 0.58899999 2.7650001 74
-3.6789999 0.375 2.773 66
-4.0479999 0.87099999 2.5799999 66
-4.0479999 0.70200002 2.7179999 67
-3.898 0.50099999 2.7679999 74
-3.677 0.294 2.7720001 72
-4.0599999 0.77499998 2.5739999 67
-4.0500002 0.60699999 2.711 69
-3.898 0.41299999 2.7639999 71
-3.671 0.213 2.7690001 67
-4.053 0.67500001 2.5580001 66
-4.0469999 0.51099998 2.701 63
-3.9000001 0.32499999 2.7639999 76
-3.665 0.133 2.767 66
-4.0510001 0.57700002 2.5480001 66
-4.0570002 0.41800001 2.7019999 63
-3.902 0.237 2.7650001 75
-3.658 0.054000001 2.766 66
-4.0539999 0.47999999 2.5420001 66
-4.059 0.324 2.7 67
-3.901 0.15000001 2.7639999 77
-3.6489999 -0.025 2.7650001 73
-4.0599999 0.384 2.5380001 66
-4.0560002 0.23 2.6960001 72
-3.895 0.061999999 2.7620001 75
-3.6400001 -0.103 2.7639999 70
-4.0469999 0.28600001 2.526 66
-4.0580001 0.13600001 2.6960001 69
-3.882 -0.024 2.757 75
-3.6270001 -0.182 2.7620001 65
-4.0469999 0.19 2.523 67
-4.0549998 0.043000001 2.6949999 69
-3.8759999 -0.11 2.756 74
-3.6199999 -0.25999999 2.7650001 71
-4.0500002 0.093999997 2.523 67
-4.0609999 -0.048999999 2.701 71
-3.8659999 -0.197 2.756 77
-3.598 -0.336 2.7579999 68
-4.0450001 -0.001 2.52 67
-4.0599999 -0.14300001 2.704 72
-3.8510001 -0.28200001 2.753 76
-3.5810001 -0.41299999 2.757 68
-4.0570002 -0.097000003 2.529 66
-4.0570002 -0.237 2.707 71
-3.8410001 -0.36700001 2.7539999 75
-3.5669999 -0.48899999 2.7579999 74
-4.0440001 -0.192 2.5239999 67
-4.0500002 -0.33000001 2.7090001 72
-3.8269999 -0.45300001 2.7539999 75
-3.5539999 -0.565 2.7620001 72
-4.046 -0.289 2.5309999 66
-4.0560002 -0.42399999 2.7219999 75
-3.812 -0.537 2.7539999 77
-3.5209999 -0.63700002 2.75 75
-4.059 -0.38699999 2.5439999 68
-4.0539999 -0.51899999 2.73 80
-3.793 -0.62099999 2.7539999 77
-3.507 -0.71200001 2.7550001 76
-4.0549998 -0.48500001 2.5510001 67
-4.039 -0.61199999 2.7309999 78
-3.773 -0.704 2.7539999 77
-3.4909999 -0.787 2.76 68
-4.0419998 -0.58099997 2.552 67
-4.0370002 -0.708 2.743 81
-3.75 -0.78600001 2.7520001 75
-3.4579999 -0.85799998 2.7520001 74
-4.0549998 -0.68199998 2.572 68
-4.0209999 -0.801 2.747 80
-3.7160001 -0.866 2.7449999 76
-3.4319999 -0.92900002 2.75 71
-4.0500002 -0.78100002 2.582 65
-3.994 -0.89099997 2.744 77
-3.697 -0.949 2.7490001 77
-3.4119999 -1.002 2.7539999 70
-4.0450001 -0.88 2.5929999 66
-3.9719999 -0.98400003 2.747 77
-3.6700001 -1.029 2.7490001 78
-3.375 -1.0700001 2.747 71
-4.052 -0.98299998 2.6140001 67
-3.9460001 -1.075 2.7490001 78
-3.632 -1.1059999 2.7420001 73
-3.3510001 -1.142 2.75 72
-4.046 -1.085 2.6289999 68
-3.914 -1.164 2.7479999 75
-3.612 -1.188 2.7490001 76
-3.3180001 -1.209 2.747 72
-4.0440001 -1.188 2.648 68
-3.8829999 -1.253 2.7490001 75
-3.5780001 -1.266 2.7479999 78
-3.2869999 -1.277 2.7460001 73
-3.9230001 -1.256 2.5910001 70
-3.8429999 -1.3380001 2.7449999 75
-3.54 -1.341 2.744 76
-3.2539999 -1.345 2.7460001 74
-3.9649999 -1.374 2.6429999 56
-3.8 -1.423 2.7409999 75
-3.5079999 -1.419 2.7460001 76
-3.2190001 -1.41 2.744 73
-4.0100002 -1.498 2.7 76
-3.7620001 -1.508 2.7409999 75
-3.464 -1.492 2.7409999 75
-3.1849999 -1.476 2.743 72
-4.0190001 -1.613 2.7349999 74
-3.7249999 -1.594 2.744 76
-3.427 -1.566 2.7409999 75
-3.151 -1.5420001 2.744 73
-3.9749999 -1.706 2.7360001 71
-3.6760001 -1.675 2.74 73
-3.3900001 -1.641 2.744 75
-3.1029999 -1.601 2.7349999 77
-3.9260001 -1.798 2.7349999 70
-3.631 -1.757 2.7390001 73
-3.348 -1.7130001 2.7420001 77
-3.0539999 -1.658 2.724 86
-3.875 -1.888 2.7349999 71
-3.5810001 -1.836 2.737 73
-3.2980001 -1.781 2.737 74
-3.0109999 -1.717 2.72 133
-3.819 -1.975 2.7320001 71
-3.5309999 -1.914 2.7349999 75
-3.257 -1.853 2.74 74
-2.9890001 -1.789 2.7360001 75
-3.7579999 -2.0599999 2.7279999 70
-3.483 -1.993 2.737 73
-3.2079999 -1.92 2.737 76
-2.9460001 -1.848 2.734 72
-3.707 -2.1489999 2.7320001 70
-3.4289999 -2.069 2.7360001 71
-3.158 -1.9859999 2.734 77
-2.908 -1.911 2.7379999 74
-3.645 -2.2309999 2.73 71
-3.3729999 -2.1429999 2.734 75
-3.1129999 -2.056 2.737 75
-2.8610001 -1.9680001 2.7349999 76
-3.579 -2.3110001 2.727 69
-3.319 -2.2179999 2.7360001 75
-3.0610001 -2.1199999 2.7349999 75
-2.8150001 -2.0239999 2.7320001 71
-3.5190001 -2.3940001 2.73 71
-3.2579999 -2.2880001 2.733 75
-3.0079999 -2.1830001 2.733 76
-2.7750001 -2.0840001 2.7360001 77
-3.4530001 -2.473 2.73 70
-3.1960001 -2.3570001 2.73 75
-2.9560001 -2.2460001 2.733 75
-2.724 -2.1370001 2.733 77
-3.382 -2.546 2.7260001 69
-3.1340001 -2.425 2.7290001 75
-2.9000001 -2.306 2.7309999 74
-2.677 -2.1919999 2.7320001 77
-3.316 -2.6240001 2.7290001 70
-3.072 -2.4920001 2.7279999 74
-2.8410001 -2.3629999 2.727 75
-2.631 -2.247 2.733 76
-3.244 -2.697 2.7290001 69
-3.0050001 -2.5550001 2.7249999 77
-2.7869999 -2.424 2.7290001 76
-2.579 -2.2980001 2.73 78
-3.1659999 -2.763 2.7249999 71
-2.9419999 -2.6210001 2.727 76
-2.7279999 -2.4809999 2.7279999 76
-2.527 -2.349 2.7290001 79
-3.082 -2.823 2.7160001 72
-2.875 -2.6830001 2.727 75
-2.6689999 -2.536 2.7260001 76
-2.4779999 -2.402 2.7309999 79
-2.852 -2.7409999 2.5769999 64
-2.8069999 -2.743 2.7260001 75
-2.6099999 -2.592 2.727 76
-2.4230001 -2.4489999 2.7260001 75
-2.7160001 -2.7390001 2.52 45
-2.74 -2.8039999 2.7279999 74
-2.5510001 -2.648 2.7279999 74
-2.372 -2.4990001 2.727 76
-2.707 -2.865 2.5810001 46
-2.6329999 -2.8210001 2.6900001 73
-2.4860001 -2.697 2.7249999 76
-2.3169999 -2.546 2.727 78
-2.6010001 -2.888 2.5510001 46
-2.437 -2.7360001 2.559 57
-2.4219999 -2.7460001 2.723 72
-2.263 -2.5929999 2.727 78
-1.29 -1.5039999 1.304 6
-1.223 -1.438 1.321 28
-1.222 -1.448 1.411 6
-2.0999999 -2.5109999 2.5929999 57
-1.188 -1.454 1.24 26
-1.168 -1.4400001 1.3 34
-1.164 -1.444 1.382 30
-1.17 -1.459 1.482 1
-1.152 -1.4809999 1.242 26
-1.132 -1.464 1.301 44
-1.1390001 -1.478 1.392 21
-1.9630001 -2.5569999 2.556 48
-1.135 -1.534 1.267 23
-1.12 -1.518 1.3279999 23
-1.126 -1.529 1.418 1
-2.017 -2.744 2.7 70
-2.027 -2.881 2.346 50
-2.03 -2.8889999 2.4909999 28
-1.947 -2.77 2.5320001 20
-1.971 -2.8010001 2.7149999 81
-1.924 -2.8800001 2.313 51
-1.929 -2.8840001 2.4530001 47
-1.919 -2.862 2.579 47
-1.891 -2.8099999 2.6849999 75
-1.827 -2.881 2.2850001 51
-1.836 -2.888 2.424 51
-1.844 -2.8840001 2.5650001 47
-1.7460001 -2.7160001 2.559 53
-1.729 -2.8789999 2.256 52
-1.743 -2.8870001 2.3940001 51
-1.7539999 -2.882 2.53 48
-1.665 -2.7130001 2.523 50
-1.6339999 -2.8740001 2.2279999 54
-1.652 -2.8829999 2.3629999 53
-1.67 -2.885 2.5020001 47
-1.612 -2.7539999 2.53 47
-1.543 -2.872 2.204 58
-1.567 -2.8870001 2.342 53
-1.587 -2.8859999 2.4749999 47
-1.582 -2.8369999 2.5739999 48
-1.459 -2.878 2.1889999 58
-1.4809999 -2.885 2.3169999 54
-1.502 -2.8789999 2.4430001 50
-1.528 -2.8800001 2.5840001 50
-1.369 -2.8710001 2.164 58
-1.395 -2.878 2.29 54
-1.424 -2.882 2.421 51
-1.456 -2.888 2.562 49
-1.2869999 -2.8729999 2.1500001 61
-1.317 -2.8829999 2.2739999 57
-1.344 -2.878 2.395 50
-1.3789999 -2.8859999 2.533 49
-1.2029999 -2.868 2.131 64
-1.235 -2.8789999 2.253 58
-1.268 -2.878 2.3729999 52
-1.306 -2.8870001 2.5079999 48
-1.124 -2.8710001 2.1199999 61
-1.156 -2.8729999 2.2320001 63
-1.194 -2.8800001 2.355 52
-1.234 -2.8859999 2.484 49
-1.045 -2.8699999 2.1070001 60
-1.08 -2.8759999 2.2190001 64
-1.12 -2.8789999 2.335 53
-1.161 -2.881 2.4579999 48
-0.972 -2.8800001 2.1040001 65
-1.005 -2.8729999 2.2030001 61
-1.044 -2.8710001 2.312 53
-1.091 -2.8800001 2.4360001 48
-0.89399999 -2.875 2.092 64
-0.93199998 -2.875 2.1930001 66
-0.97799999 -2.8829999 2.306 53
-1.021 -2.8759999 2.4130001 50
-0.81800002 -2.8699999 2.0810001 68
-0.86000001 -2.875 2.1819999 54
-0.90399998 -2.8710001 2.2820001 53
-0.95499998 -2.881 2.398 47
-0.74599999 -2.8759999 2.079 69
-0.78799999 -2.872 2.171 64
-0.83499998 -2.8710001 2.2690001 52
-0.88999999 -2.885 2.385 53
-0.67299998 -2.8740001 2.073 62
-0.71600002 -2.868 2.1600001 55
-0.76800001 -2.8729999 2.2590001 52
-0.82200003 -2.8789999 2.3640001 52
-0.59799999 -2.8640001 2.063 68
-0.648 -2.8729999 2.1559999 55
-0.69999999 -2.8729999 2.2479999 51
-0.75400001 -2.868 2.3399999 53
-0.52899998 -2.8729999 2.0669999 65
-0.57800001 -2.8699999 2.1489999 59
-0.63200003 -2.865 2.2320001 50
-0.69199997 -2.875 2.332 50
-0.45899999 -2.8729999 2.066 67
-0.51099998 -2.872 2.1459999 58
-0.56900001 -2.8770001 2.234 51
-0.62800002 -2.8740001 2.319 50
-0.38699999 -2.8610001 2.0580001 79
-0.44299999 -2.872 2.1429999 59
-0.50300002 -2.8740001 2.224 49
-0.56300002 -2.865 2.3 53
-0.31999999 -2.8770001 2.0710001 63
-0.37599999 -2.8699999 2.1400001 58
-0.43700001 -2.8629999 2.2090001 52
-0.50099999 -2.868 2.2920001 53
-0.25 -2.8659999 2.0669999 63
-0.30899999 -2.8659999 2.1359999 59
-0.373 -2.872 2.2119999 51
-0.43599999 -2.8540001 2.2709999 49
-0.182 -2.8670001 2.072 64
-0.244 -2.8759999 2.1440001 62
-0.30899999 -2.868 2.2049999 49
-0.37599999 -2.8599999 2.2679999 55
-0.114 -2.872 2.082 59
-0.177 -2.8659999 2.138 63
-0.245 -2.8699999 2.2030001 49
-0.31600001 -2.8729999 2.2709999 54
-0.045000002 -2.875 2.0899999 64
-0.111 -2.865 2.141 64
-0.182 -2.869 2.201 50
-0.25400001 -2.869 2.2609999 55
0.022 -2.8710001 2.095 65
-0.046 -2.865 2.1440001 63
-0.118 -2.862 2.1949999 50
-0.193 -2.8699999 2.257 54
0.090000004 -2.8729999 2.1059999 61
0.017999999 -2.8710001 2.1530001 60
-0.056000002 -2.868 2.2 49
-0.132 -2.8729999 2.2539999 53
0.15700001 -2.8699999 2.1140001 62
0.083999999 -2.868 2.158 58
0.0060000001 -2.869 2.2019999 49
-0.071000002 -2.8729999 2.2509999 54
0.22499999 -2.8699999 2.1270001 67
0.15000001 -2.8729999 2.1689999 55
0.07 -2.8670001 2.2030001 49
-0.0089999996 -2.868 2.2449999 55
0.294 -2.8729999 2.142 57
0.215 -2.872 2.177 58
0.133 -2.8670001 2.207 50
0.050999999 -2.8759999 2.2490001 57
0.36300001 -2.878 2.161 56
0.28 -2.869 2.1830001 55
0.19599999 -2.872 2.2149999 49
0.112 -2.872 2.2460001 56
0.43099999 -2.8710001 2.171 59
0.347 -2.869 2.1949999 60
0.25999999 -2.869 2.2179999 49
0.17299999 -2.869 2.244 54
0.50099999 -2.872 2.1889999 54
0.41299999 -2.869 2.2060001 58
0.32300001 -2.8670001 2.224 50
0.235 -2.8729999 2.2479999 55
0.57099998 -2.8729999 2.2079999 55
0.47999999 -2.872 2.2219999 54
0.38800001 -2.869 2.233 50
0.29699999 -2.869 2.2479999 55
0.63999999 -2.8710001 2.227 54
0.54799998 -2.8740001 2.2379999 55
0.45300001 -2.8729999 2.2449999 50
0.359 -2.869 2.2509999 54
0.71200001 -2.8740001 2.2509999 54
0.616 -2.875 2.2550001 52
0.51700002 -2.8710001 2.2539999 50
0.42199999 -2.8699999 2.257 54
0.78200001 -2.868 2.2690001 55
0.68300003 -2.868 2.267 55
0.583 -2.8710001 2.2650001 51
0.484 -2.8670001 2.26 55
0.85500002 -2.868 2.2939999 53
0.75300002 -2.8740001 2.29 57
0.648 -2.8670001 2.2750001 50
0.54699999 -2.8599999 2.2620001 54
0.92900002 -2.869 2.3210001 53
0.82300001 -2.872 2.3080001 53
0.71499997 -2.8659999 2.2880001 51
0.61199999 -2.8640001 2.2720001 53
1.005 -2.8740001 2.352 53
0.89300001 -2.8699999 2.3280001 56
0.78399998 -2.8710001 2.306 52
0.67699999 -2.868 2.2839999 50
1.08 -2.8729999 2.382 53
0.96700001 -2.8789999 2.358 51
0.85100001 -2.8670001 2.319 51
0.741 -2.859 2.2869999 54
1.16 -2.8789999 2.4189999 51
1.039 -2.8759999 2.3800001 52
0.92199999 -2.8729999 2.342 53
0.81 -2.8659999 2.3050001 53
1.24 -2.8840001 2.457 52
1.115 -2.878 2.408 52
0.99400002 -2.878 2.365 53
0.87900001 -2.8729999 2.322 51
1.316 -2.8740001 2.484 48
1.187 -2.8729999 2.431 52
1.0650001 -2.8729999 2.382 53
0.94599998 -2.8699999 2.3340001 53
1.4 -2.8789999 2.526 48
1.2640001 -2.8710001 2.4590001 49
1.137 -2.872 2.4030001 53
1.018 -2.875 2.3529999 52
1.483 -2.8800001 2.566 48
1.345 -2.878 2.4960001 51
1.21 -2.8699999 2.425 53
1.087 -2.872 2.3670001 50
1.538 -2.8239999 2.5580001 48
1.425 -2.8800001 2.5320001 51
1.288 -2.875 2.454 51
1.161 -2.8759999 2.3889999 48
1.564 -2.7219999 2.5079999 46
1.506 -2.8770001 2.5650001 48
1.362 -2.869 2.4760001 52
1.235 -2.8770001 2.4089999 49
1.626 -2.684 2.516 57
1.567 -2.8369999 2.5650001 46
1.4450001 -2.8789999 2.5139999 47
1.313 -2.881 2.434 48
1.711 -2.6830001 2.562 55
1.596 -2.7409999 2.517 43
1.523 -2.8740001 2.54 48
1.385 -2.8710001 2.448 49
1.842 -2.747 2.675 67
1.652 -2.6960001 2.5150001 56
1.607 -2.8759999 2.5739999 47
1.4680001 -2.882 2.4809999 49
1.925 -2.733 2.714 81
1.712 -2.6589999 2.5209999 58
1.659 -2.822 2.559 46
1.548 -2.8800001 2.506 50
1.978 -2.6760001 2.7119999 74
1.891 -2.7969999 2.698 106
1.687 -2.7290001 2.51 44
1.6289999 -2.878 2.5320001 50
2.036 -2.6270001 2.72 75
1.9630001 -2.7679999 2.7179999 88
1.751 -2.697 2.5179999 55
1.717 -2.885 2.5680001 50
2.085 -2.5669999 2.717 75
2.0190001 -2.7149999 2.717 76
1.888 -2.7720001 2.628 99
1.786 -2.8540001 2.5739999 51
2.1289999 -2.503 2.711 71
2.0769999 -2.6670001 2.72 79
2.01 -2.813 2.711 77
1.816 -2.766 2.527 45
2.181 -2.45 2.717 74
2.1270001 -2.608 2.7149999 85
2.069 -2.7650001 2.7090001 72
1.869 -2.7119999 2.513 52
2.2279999 -2.391 2.717 73
2.181 -2.556 2.7160001 82
2.1359999 -2.7260001 2.7190001 71
1.9859999 -2.7509999 2.5869999 64
2.2690001 -2.3269999 2.7119999 73
2.2349999 -2.5039999 2.7190001 80
2.188 -2.6689999 2.7119999 53
2.1270001 -2.812 2.6860001 72
2.313 -2.267 2.7130001 78
2.283 -2.4460001 2.717 79
2.247 -2.619 2.7130001 72
2.2119999 -2.7939999 2.7130001 62
2.359 -2.21 2.7190001 76
2.332 -2.3889999 2.7179999 81
2.3080001 -2.572 2.7190001 71
0 0 0 50
2.3970001 -2.1459999 2.7160001 72
2.3829999 -2.3340001 2.721 82
2.359 -2.5150001 2.7149999 72
2.332 -2.691 2.7060001 75
2.4400001 -2.0880001 2.721 72
2.431 -2.277 2.723 89
2.4119999 -2.4590001 2.714 72
2.3959999 -2.6440001 2.7090001 73
2.4779999 -2.026 2.7219999 72
2.47 -2.2130001 2.717 80
2.4649999 -2.404 2.7149999 71
2.4549999 -2.5899999 2.707 76
2.516 -1.966 2.7249999 72
2.516 -2.155 2.721 80
2.5190001 -2.3499999 2.7179999 71
2.5150001 -2.5369999 2.7079999 72
2.55 -1.902 2.7249999 74
2.5599999 -2.095 2.7219999 86
2.569 -2.2920001 2.7179999 68
2.576 -2.4849999 2.711 73
2.5829999 -1.8380001 2.7260001 77
2.6010001 -2.0350001 2.723 79
2.6210001 -2.234 2.721 72
2.632 -2.427 2.71 73
2.605 -1.767 2.7160001 79
2.641 -1.973 2.724 81
2.6659999 -2.1719999 2.7179999 72
2.688 -2.369 2.711 74
2.6210001 -1.6950001 2.7019999 69
2.677 -1.908 2.7219999 78
2.711 -2.1110001 2.7179999 71
2.743 -2.3110001 2.711 72
2.654 -1.6339999 2.707 115
2.7149999 -1.847 2.7249999 79
2.7579999 -2.05 2.72 72
0 0 0 50
2.6670001 -1.562 2.694 113
2.7509999 -1.783 2.7249999 95
2.799 -1.985 2.7179999 70
2.8469999 -2.1860001 2.7090001 74
2.697 -1.5 2.6989999 97
2.7839999 -1.7180001 2.7249999 77
2.8440001 -1.923 2.721 71
2.9000001 -2.125 2.7130001 73
2.7479999 -1.45 2.727 76
2.8139999 -1.651 2.723 76
2.8859999 -1.859 2.7219999 71
2.9530001 -2.063 2.7160001 73
2.7720001 -1.386 2.7279999 70
2.8529999 -1.591 2.7320001 78
2.9230001 -1.791 2.721 72
2.997 -1.995 2.7130001 70
2.7980001 -1.322 2.734 72
2.878 -1.523 2.7279999 81
2.964 -1.727 2.724 71
3.05 -1.931 2.7190001 73
2.823 -1.2589999 2.7379999 73
2.898 -1.452 2.721 81
3.0020001 -1.66 2.7260001 71
3.0929999 -1.862 2.7179999 78
2.8369999 -1.192 2.7349999 74
2.9400001 -1.392 2.7349999 83
3.0369999 -1.592 2.727 72
3.138 -1.793 2.7190001 76
2.852 -1.125 2.733 72
2.9579999 -1.322 2.7290001 87
3.069 -1.522 2.7249999 72
3.1789999 -1.721 2.7190001 74
2.8729999 -1.062 2.7390001 80
2.98 -1.2539999 2.7279999 82
3.1059999 -1.454 2.7309999 72
3.224 -1.651 2.723 73
2.8840001 -0.995 2.7360001 76
3.0039999 -1.186 2.7309999 83
3.132 -1.381 2.7279999 72
3.267 -1.581 2.727 73
2.901 -0.93099999 2.74 76
3.0280001 -1.119 2.734 81
3.161 -1.311 2.7290001 72
3.2950001 -1.502 2.72 73
2.9119999 -0.86500001 2.74 65
3.049 -1.052 2.737 83
3.1919999 -1.2410001 2.7320001 71
3.339 -1.431 2.7279999 72
2.852 -0.78100002 2.674 45
3.0680001 -0.98299998 2.7379999 89
3.2149999 -1.1670001 2.7309999 72
3.3610001 -1.351 2.7190001 72
2.8540001 -0.71499997 2.668 48
3.069 -0.91000003 2.7249999 120
3.2420001 -1.095 2.734 71
3.4030001 -1.278 2.727 72
2.8529999 -0.64999998 2.6600001 50
2.852 -0.77700001 2.52 53
3.2679999 -1.023 2.7379999 73
3.4319999 -1.199 2.727 73
2.8529999 -0.58600003 2.655 46
2.8559999 -0.71100003 2.5139999 53
0 0 0 50
3.461 -1.1210001 2.7290001 74
2.845 -0.52100003 2.6429999 48
2.855 -0.64499998 2.503 52
2.8440001 -0.75099999 2.355 53
3.494 -1.043 2.7349999 77
2.8529999 -0.45899999 2.6470001 46
2.8469999 -0.57800001 2.4879999 56
2.852 -0.685 2.3499999 55
2.8510001 -0.77999997 2.217 63
2.8570001 -0.39700001 2.648 46
2.8540001 -0.514 2.4879999 61
2.849 -0.61699998 2.3369999 53
2.849 -0.70899999 2.201 70
2.8610001 -0.336 2.651 46
2.8499999 -0.449 2.4790001 60
2.8469999 -0.55000001 2.326 51
2.852 -0.64099997 2.1919999 66
2.8559999 -0.273 2.6459999 50
2.8499999 -0.38600001 2.4749999 62
2.8440001 -0.48300001 2.316 51
2.8510001 -0.57099998 2.1800001 69
2.845 -0.211 2.6370001 47
2.8540001 -0.322 2.4749999 62
2.8510001 -0.419 2.3150001 52
2.8469999 -0.50199997 2.1670001 71
2.8499999 -0.15099999 2.6440001 49
2.848 -0.25799999 2.4679999 65
2.845 -0.352 2.3050001 51
2.855 -0.435 2.165 70
2.9330001 -0.093000002 2.723 61
2.8510001 -0.19599999 2.4690001 54
2.845 -0.287 2.3 54
2.849 -0.36700001 2.154 70
2.9579999 -0.030999999 2.7509999 76
2.8529999 -0.134 2.471 69
2.849 -0.223 2.3 52
2.848 -0.30000001 2.1470001 71
2.951 0.030999999 2.7490001 81
3.181 -0.079999998 2.756 79
2.845 -0.15800001 2.2950001 54
2.848 -0.234 2.1429999 77
2.9460001 0.093000002 2.7509999 83
3.1700001 -0.0099999998 2.7490001 82
3.3789999 -0.112 2.7249999 54
2.846 -0.167 2.1389999 76
2.9389999 0.155 2.7520001 83
3.174 0.057999998 2.756 76
3.4030001 -0.035 2.7449999 81
2.8410001 -0.1 2.1329999 21
2.934 0.21600001 2.756 81
0 0 0 50
3.4030001 0.041000001 2.7479999 73
3.6570001 -0.043000001 2.7449999 76
2.924 0.278 2.7550001 80
3.155 0.197 2.7509999 77
3.405 0.118 2.7520001 75
3.655 0.041999999 2.7449999 77
2.9170001 0.33899999 2.7590001 84
3.154 0.266 2.7579999 87
3.3940001 0.19499999 2.7490001 79
3.6459999 0.126 2.74 76
2.904 0.40000001 2.757 85
3.142 0.33399999 2.756 77
3.3889999 0.271 2.7509999 72
3.6470001 0.212 2.7449999 80
2.8929999 0.46000001 2.76 84
3.1300001 0.40099999 2.7550001 79
3.3840001 0.34799999 2.7539999 72
3.645 0.29699999 2.7490001 75
2.875 0.51899999 2.756 82
3.1210001 0.47 2.7590001 76
3.375 0.42399999 2.7550001 72
3.6300001 0.382 2.7449999 74
2.8659999 0.579 2.7620001 82
3.1099999 0.53799999 2.7609999 81
3.358 0.5 2.7520001 71
3.6259999 0.46799999 2.7509999 76
2.845 0.63700002 2.757 85
3.089 0.60399997 2.756 80
3.3469999 0.57599998 2.756 73
3.605 0.551 2.7460001 77
2.8299999 0.69599998 2.7590001 92
3.079 0.67199999 2.7620001 80
3.3329999 0.65200001 2.757 74
3.595 0.63700002 2.7509999 77
2.816 0.755 2.763 93
3.0610001 0.73799998 2.7620001 81
3.3180001 0.72799999 2.76 72
3.5799999 0.72100002 2.753 77
2.7980001 0.81300002 2.763 90
3.04 0.80299997 2.76 81
3.2950001 0.801 2.757 76
3.566 0.80599999 2.7579999 80
0 0 0 50
3.0250001 0.87 2.766 80
3.2739999 0.875 2.7590001 74
3.5369999 0.88800001 2.753 76
2.7590001 0.92799997 2.766 89
3 0.93400002 2.7620001 79
3.25 0.94800001 2.757 72
3.52 0.972 2.7590001 76
2.743 0.986 2.77 84
2.9749999 0.99800003 2.7609999 86
3.2309999 1.023 2.7620001 73
3.4920001 1.054 2.7579999 77
2.688 1.03 2.7379999 105
2.9579999 1.0650001 2.7679999 80
3.207 1.096 2.7639999 72
3.4590001 1.1339999 2.7550001 77
2.664 1.084 2.7379999 106
2.9289999 1.127 2.7650001 79
3.175 1.1670001 2.7609999 72
3.4360001 1.217 2.7609999 76
2.6429999 1.14 2.74 112
2.904 1.1900001 2.767 77
3.1500001 1.239 2.7650001 75
3.4000001 1.295 2.7579999 78
2.619 1.1950001 2.7420001 109
2.8789999 1.2539999 2.77 77
3.1229999 1.311 2.7690001 72
3.3699999 1.375 2.7620001 75
2.595 1.249 2.744 115
2.848 1.314 2.7679999 79
3.0810001 1.377 2.7609999 75
3.336 1.455 2.766 77
2.572 1.304 2.7479999 126
2.8169999 1.376 2.7679999 83
3.0539999 1.449 2.7679999 72
3.2920001 1.529 2.7609999 78
2.536 1.353 2.74 106
2.786 1.437 2.77 80
3.0150001 1.516 2.766 72
3.253 1.607 2.7639999 78
2.513 1.408 2.747 112
2.75 1.495 2.766 93
2.977 1.5829999 2.766 72
3.2130001 1.683 2.7650001 77
2.49 1.4630001 2.7539999 113
0 0 0 50
2.9449999 1.653 2.773 71
3.1700001 1.757 2.766 77
2.464 1.517 2.7579999 93
2.665 1.602 2.75 119
2.902 1.716 2.77 72
3.1270001 1.831 2.77 78
2.4389999 1.572 2.766 101
2.631 1.66 2.753 118
2.8610001 1.7819999 2.7720001 72
3.0799999 1.903 2.7709999 75
2.4100001 1.624 2.77 95
2.592 1.716 2.7509999 108
2.8199999 1.846 2.7739999 71
3.0309999 1.974 2.7720001 73
2.381 1.677 2.7750001 89
2.553 1.771 2.75 113
2.773 1.9069999 2.7720001 77
2.9809999 2.0439999 2.773 77
2.349 1.728 2.7780001 83
2.513 1.826 2.7520001 110
2.711 1.9579999 2.757 104
2.927 2.1110001 2.773 75
2.313 1.776 2.777 87
2.4779999 1.8839999 2.757 100
2.654 2.0109999 2.7479999 124
2.8710001 2.1760001 2.773 78
2.277 1.825 2.777 81
2.4400001 1.9400001 2.7620001 91
2.618 2.0780001 2.76 107
2.8169999 2.243 2.7750001 78
2.2409999 1.873 2.7780001 83
2.411 2.0039999 2.7780001 90
2.5580001 2.128 2.75 123
2.7609999 2.3080001 2.7780001 75
2.204 1.92 2.779 81
2.3710001 2.059 2.783 87
2.5150001 2.1900001 2.7590001 100
2.7030001 2.3699999 2.78 73
2.164 1.965 2.777 84
0 0 0 50
2.4549999 2.2390001 2.7509999 83
2.6429999 2.431 2.7809999 72
2.1289999 2.016 2.7839999 97
2.283 2.165 2.789 75
2.4260001 2.3169999 2.78 75
2.5810001 2.49 2.7820001 76
2.0869999 2.059 2.7820001 80
2.2309999 2.21 2.783 82
2.372 2.3710001 2.7820001 77
2.5150001 2.546 2.7820001 75
2.0420001 2.099 2.776 85
2.1819999 2.2579999 2.7839999 79
2.319 2.4260001 2.786 74
2.447 2.598 2.779 74
2.006 2.1489999 2.7839999 89
2.1329999 2.3039999 2.783 82
2.257 2.471 2.7809999 74
2.3829999 2.6530001 2.7809999 79
1.966 2.1949999 2.7869999 86
2.086 2.355 2.7880001 74
2.2019999 2.5250001 2.786 75
2.3150001 2.7049999 2.7820001 70
1.9220001 2.237 2.7869999 87
2.0339999 2.4000001 2.7880001 74
2.1400001 2.5699999 2.783 71
2.2420001 2.7490001 2.777 75
1.878 2.28 2.789 92
1.983 2.4460001 2.79 82
2.079 2.6159999 2.7839999 71
2.1789999 2.806 2.786 75
1.734 2.1960001 2.638 112
1.928 2.487 2.7880001 75
2.0209999 2.6670001 2.7909999 75
2.1040001 2.848 2.7820001 73
1.663 2.1989999 2.5969999 92
1.877 2.5339999 2.7939999 85
1.9579999 2.71 2.7909999 72
2.033 2.8929999 2.7839999 77
1.6339999 2.2550001 2.6199999 69
1.699 2.4000001 2.605 110
1.89 2.7449999 2.7850001 71
1.9630001 2.9400001 2.789 74
1.689 2.437 2.7850001 87
1.653 2.4460001 2.615 112
1.712 2.6129999 2.612 61
1.89 2.9820001 2.7920001 74
1.643 2.4779999 2.789 78
1.706 2.648 2.789 86
1.643 2.6370001 2.6010001 60
1.7180001 2.859 2.642 60
1.595 2.517 2.7920001 90
1.65 2.6889999 2.793 86
1.693 2.8610001 2.7850001 73
1.645 2.8900001 2.6400001 56
1.546 2.5550001 2.793 84
1.591 2.724 2.7920001 84
1.631 2.905 2.793 79
1.659 3.085 2.7869999 46
1.4910001 2.585 2.7869999 88
1.531 2.7590001 2.7920001 84
1.559 2.9330001 2.7880001 76
1.581 3.1159999 2.786 74
1.444 2.628 2.796 80
1.472 2.793 2.793 81
1.489 2.9630001 2.7869999 70
1.505 3.1500001 2.79 73
1.3890001 2.658 2.7920001 93
1.411 2.825 2.7920001 82
1.424 3.003 2.796 73
1.429 3.184 2.7950001 71
1.336 2.6930001 2.7939999 84
1.352 2.862 2.7980001 80
1.352 3.0280001 2.7920001 72
1.347 3.2030001 2.79 77
1.284 2.7279999 2.7980001 83
1.2869999 2.888 2.7939999 86
1.281 3.053 2.79 71
1.2690001 3.2309999 2.793 77
1.229 2.76 2.7980001 90
1.223 2.914 2.7909999 81
1.211 3.0829999 2.7950001 71
1.192 3.2620001 2.802 35
1.1720001 2.7880001 2.796 72
1.1619999 2.948 2.7980001 82
1.1390001 3.1059999 2.7939999 71
1.107 3.2690001 2.7909999 74
1.118 2.822 2.8010001 82
1.098 2.974 2.7980001 84
1.066 3.128 2.7939999 72
1.028 3.2920001 2.7950001 76
1.0599999 2.8499999 2.8010001 83
1.0319999 2.9949999 2.7950001 78
0.995 3.1530001 2.7980001 76
0.94700003 3.3069999 2.796 79
1.001 2.875 2.799 86
0.96700001 3.0209999 2.7969999 81
0.92199999 3.171 2.7969999 71
0.86500001 3.3169999 2.793 76
0.94199997 2.9000001 2.7980001 86
0.90100002 3.043 2.7969999 85
0.84799999 3.1889999 2.7980001 71
0.787 3.3369999 2.8010001 76
0.884 2.928 2.8010001 86
0.833 3.0599999 2.7939999 78
0.77499998 3.2060001 2.8 71
0.70499998 3.3440001 2.7980001 77
0.82200003 2.947 2.7969999 83
0.76700002 3.0829999 2.7980001 86
0.70099998 3.2190001 2.799 70
0.62300003 3.3469999 2.7950001 79
0.76300001 2.977 2.8039999 84
0.699 3.0969999 2.7950001 82
0.62599999 3.2309999 2.799 71
0.542 3.358 2.8 80
0.70099998 2.9960001 2.8010001 86
0.63099998 3.1140001 2.796 81
0.55299997 3.2490001 2.806 76
0.46200001 3.3670001 2.8050001 79
0.639 3.0190001 2.8039999 83
0.56400001 3.1359999 2.8010001 84
0.477 3.2520001 2.802 70
0.38100001 3.3610001 2.799 78
0.57700002 3.0409999 2.806 88
0.495 3.1470001 2.8 81
0.403 3.2579999 2.8010001 73
0.301 3.3640001 2.802 81
0.51300001 3.0580001 2.8050001 83
0.426 3.1589999 2.799 83
0.32800001 3.266 2.8039999 70
0.22 3.3559999 2.7980001 52
0.449 3.073 2.8039999 82
0.35699999 3.1760001 2.8050001 82
0.25299999 3.2679999 2.803 70
0.14 3.3510001 2.7980001 79
0.38499999 3.0910001 2.8050001 79
0.28799999 3.1849999 2.806 85
0.178 3.267 2.8010001 67
0.061000001 3.349 2.802 77
0.31900001 3.1029999 2.803 85
0.21699999 3.194 2.8069999 69
0.104 3.27 2.803 70
-0.017999999 3.339 2.8010001 77
0.25400001 3.122 2.809 74
0.147 3.198 2.8050001 88
0.028000001 3.2609999 2.7969999 75
-0.096000001 3.3280001 2.8010001 75
0.18799999 3.1340001 2.809 90
0.075999998 3.201 2.8039999 79
-0.044 3.2579999 2.7980001 72
-0.17399999 3.312 2.7980001 73
0.121 3.141 2.806 83
0.0060000001 3.201 2.8010001 82
-0.119 3.256 2.8010001 70
-0.252 3.309 2.8069999 80
0.054000001 3.1500001 2.8050001 87
0 0 0 50
-0.193 3.2479999 2.8010001 73
-0.32800001 3.2850001 2.8010001 79
-0.013 3.154 2.802 91
-0.13500001 3.2079999 2.806 85
-0.266 3.2390001 2.8010001 70
-0.40400001 3.266 2.8 77
-0.081 3.161 2.803 86
-0.206 3.201 2.802 80
-0.34 3.2309999 2.802 79
-0.48100001 3.2520001 2.8050001 80
-0.149 3.164 2.802 87
-0.27700001 3.2030001 2.8069999 80
-0.414 3.22 2.8039999 70
-0.55400002 3.223 2.799 77
-0.21799999 3.168 2.8010001 91
-0.34900001 3.1989999 2.8069999 84
-0.48500001 3.2030001 2.8010001 69
-0.62800002 3.204 2.802 76
-0.28799999 3.178 2.809 92
-0.419 3.191 2.806 84
-0.55800003 3.1919999 2.8050001 74
-0.70200002 3.181 2.8039999 81
-0.35600001 3.175 2.806 88
-0.49000001 3.184 2.8069999 82
-0.63 3.174 2.8039999 69
-0.773 3.152 2.8010001 77
-0.42699999 3.181 2.812 84
-0.56099999 3.1719999 2.8050001 86
-0.70099998 3.154 2.803 69
-0.847 3.131 2.8080001 78
-0.49700001 3.1760001 2.8099999 91
-0.63099998 3.1570001 2.802 80
-0.77100003 3.1329999 2.802 72
-0.91500002 3.095 2.802 74
-0.56599998 3.1689999 2.8069999 91
-0.70200002 3.1489999 2.806 86
-0.84200001 3.1110001 2.803 69
-0.98199999 3.059 2.7980001 78
-0.63800001 3.1659999 2.8099999 90
-0.77200001 3.1329999 2.8039999 86
-0.91100001 3.086 2.8010001 69
-1.051 3.029 2.8010001 78
-0.708 3.158 2.809 83
-0.84200001 3.118 2.8050001 88
-0.98100001 3.0669999 2.806 69
-1.1160001 2.9879999 2.7939999 73
-0.77600002 3.1400001 2.8010001 98
-0.91100001 3.0969999 2.802 85
-1.0470001 3.0339999 2.8 68
-1.184 2.9590001 2.8010001 79
-0.84899998 3.1389999 2.809 87
-0.98000002 3.0780001 2.802 84
-1.114 3.0039999 2.799 67
-1.251 2.925 2.8039999 77
-0.921 3.1300001 2.812 94
-1.048 3.0550001 2.8 79
-1.182 2.9779999 2.803 69
-1.313 2.8840001 2.8010001 79
-0.98900002 3.108 2.8050001 86
-1.1160001 3.0320001 2.799 81
-1.244 2.9389999 2.7950001 70
-1.372 2.8380001 2.7950001 81
-1.0599999 3.096 2.8080001 94
-1.186 3.0109999 2.802 80
-1.308 2.905 2.7920001 69
-1.4349999 2.8010001 2.799 80
-1.13 3.0780001 2.8069999 86
-1.251 2.9820001 2.7980001 84
-1.374 2.875 2.7969999 74
-1.4960001 2.76 2.8 78
-1.198 3.0539999 2.802 79
-1.321 2.961 2.8050001 81
-1.437 2.8399999 2.7969999 71
-1.552 2.7119999 2.7950001 75
-1.2690001 3.0369999 2.8039999 92
-1.386 2.9289999 2.8010001 84
-1.499 2.803 2.796 67
-1.613 2.6730001 2.8010001 77
-1.341 3.0190001 2.809 84
-1.452 2.8989999 2.8010001 87
-1.5599999 2.7650001 2.796 74
-1.671 2.6300001 2.8050001 78
-1.408 2.9890001 2.803 88
-1.517 2.8659999 2.8 87
0 0 0 50
-0.87199998 1.3049999 1.4170001 0
-1.479 2.967 2.806 84
-1.582 2.8329999 2.8 85
-1.679 2.6830001 2.7939999 71
-0.87900001 1.253 1.386 10
-1.5470001 2.9389999 2.8050001 82
-1.642 2.7939999 2.796 81
-1.7410001 2.6470001 2.8010001 65
-0.884 1.2 1.354 52
-1.614 2.9070001 2.802 86
-1.7079999 2.7620001 2.8 81
-0.861 1.247 1.341 51
-0.92500001 1.197 1.378 34
-1.6849999 2.881 2.8069999 78
-1.7690001 2.721 2.796 80
-0.85000002 1.174 1.285 31
-0.97299999 1.201 1.4119999 51
-1.753 2.849 2.8069999 86
-0.83600003 1.226 1.278 29
-0.84799999 1.117 1.244 48
-1.011 1.191 1.432 19
-0.82099998 1.27 1.266 25
-0.82599998 1.154 1.222 41
-0.86400002 1.086 1.233 60
-1.064 1.197 1.472 2
-0.81900001 1.2079999 1.22 42
-0.838 1.117 1.202 44
-0.88999999 1.068 1.2359999 50
-2.0480001 2.2019999 2.7720001 71
-0.81900001 1.151 1.178 40
-0.85299999 1.086 1.188 50
-0.91799998 1.053 1.244 44
-1.9579999 2.0109999 2.5940001 64
-0.83200002 1.115 1.158 46
-0.87400001 1.063 1.183 68
-0.94300002 1.033 1.247 12
-1.987 1.95 2.582 40
-0.84600002 1.082 1.141 53
-0.89700001 1.0420001 1.182 57
-1.994 2.0880001 2.5769999 43
-2.108 1.977 2.688 68
-0.86900002 1.062 1.138 54
-0.926 1.028 1.189 60
-2.211 2.214 2.796 76
-2.2320001 2 2.7939999 78
-0.89300001 1.0420001 1.136 64
0 0 0 50
-2.2509999 2.1559999 2.7880001 69
-2.266 1.9400001 2.79 78
-0.92199999 1.027 1.14 66
-0.98900002 1.0039999 1.21 15
-2.296 2.1010001 2.7880001 65
-2.3 1.881 2.7869999 78
-0.954 1.017 1.15 63
-2.3329999 2.2620001 2.7880001 76
-2.342 2.049 2.7909999 71
-2.3380001 1.826 2.7909999 82
-0.98799998 1.006 1.16 64
-2.3870001 2.2119999 2.7920001 79
-2.382 1.99 2.7869999 66
-2.3699999 1.766 2.7880001 85
-1.007 0.98000002 1.154 7
-2.437 2.1589999 2.7909999 79
-2.424 1.9349999 2.789 72
-2.402 1.7079999 2.7880001 87
-2.4979999 2.323 2.7980001 78
-2.4820001 2.0999999 2.7869999 75
-2.4660001 1.88 2.7909999 75
-2.434 1.65 2.789 85
-2.553 2.2679999 2.796 76
-2.5320001 2.0469999 2.79 79
-2.5009999 1.819 2.7869999 73
-2.4649999 1.591 2.79 82
-2.609 2.2130001 2.7969999 79
-2.5780001 1.989 2.79 80
-2.5369999 1.76 2.7850001 70
-2.4960001 1.533 2.793 82
-2.661 2.1559999 2.7950001 76
-2.6199999 1.928 2.786 84
-2.572 1.7 2.7850001 79
-2.517 1.47 2.7869999 86
-2.714 2.098 2.796 77
-2.665 1.87 2.7880001 82
-2.605 1.6390001 2.7839999 81
-2.539 1.408 2.7839999 87
-2.7679999 2.04 2.7980001 103
-2.7060001 1.8099999 2.7880001 84
-2.6359999 1.5779999 2.7809999 77
-2.5650001 1.348 2.7850001 86
-2.793 1.961 2.773 98
-2.743 1.7460001 2.7839999 91
-2.6700001 1.518 2.7850001 74
-2.586 1.2869999 2.7839999 93
-2.8469999 1.904 2.779 89
-2.7839999 1.684 2.786 111
-2.6960001 1.454 2.78 66
-2.605 1.225 2.7820001 88
-2.878 1.831 2.7639999 114
-2.7909999 1.604 2.7550001 102
-2.727 1.393 2.7820001 69
-2.631 1.1670001 2.7880001 92
-2.9189999 1.7640001 2.7609999 123
-2.8329999 1.544 2.7609999 110
-2.7539999 1.33 2.783 100
-2.642 1.104 2.7809999 86
-2.9690001 1.702 2.767 111
-2.8659999 1.479 2.76 122
-2.7720001 1.263 2.7739999 114
-2.6589999 1.0420001 2.7809999 88
-3.0039999 1.632 2.76 128
-2.891 1.41 2.753 134
-2.779 1.192 2.7579999 110
-2.678 0.98199999 2.7839999 89
-3.043 1.563 2.7579999 125
-2.9230001 1.344 2.7539999 126
-2.799 1.128 2.7550001 112
-2.691 0.921 2.783 87
-3.1059999 1.506 2.7809999 78
0 0 0 50
-2.8199999 1.064 2.7550001 112
-2.7 0.85799998 2.7780001 94
-3.1489999 1.438 2.786 81
-2.9849999 1.212 2.757 135
-2.8440001 1.001 2.7590001 82
-2.714 0.79799998 2.78 88
-3.187 1.367 2.789 81
-3.003 1.14 2.75 125
-2.8789999 0.94199997 2.7750001 83
-2.721 0.736 2.777 96
-3.2149999 1.2920001 2.783 84
-3.0320001 1.073 2.7539999 135
-2.895 0.87699997 2.7739999 83
-2.73 0.67500001 2.777 87
-3.244 1.217 2.7809999 80
-3.0829999 1.013 2.779 89
-2.908 0.81 2.7720001 81
-2.74 0.61400002 2.7780001 92
-3.2739999 1.143 2.7809999 81
-3.1010001 0.94099998 2.7750001 87
-2.924 0.74599999 2.7739999 84
-2.7460001 0.55299997 2.7780001 85
-3.2980001 1.066 2.7780001 81
-3.125 0.87199998 2.779 89
-2.9289999 0.67799997 2.767 81
-2.7490001 0.49200001 2.7750001 80
-3.3239999 0.98900002 2.7780001 78
-3.1400001 0.80000001 2.776 87
-2.941 0.61199999 2.7679999 84
-2.7579999 0.43200001 2.78 84
-3.342 0.91100001 2.773 77
-3.1500001 0.727 2.77 89
-2.9530001 0.54699999 2.77 87
-2.7550001 0.37099999 2.7739999 89
-3.3640001 0.833 2.773 79
-3.1700001 0.65600002 2.7750001 86
-2.96 0.47999999 2.77 85
-2.756 0.31099999 2.773 88
-3.382 0.75400001 2.7709999 77
-3.1760001 0.58200002 2.7690001 91
-2.9630001 0.414 2.766 73
-2.7609999 0.252 2.7780001 84
-3.401 0.676 2.7720001 79
-3.1860001 0.509 2.7679999 85
-2.9690001 0.34799999 2.767 72
-2.7550001 0.192 2.7720001 86
-3.415 0.59600002 2.7709999 80
-3.197 0.43700001 2.7690001 89
-2.977 0.28200001 2.7709999 65
-2.7460001 0.132 2.7650001 79
-3.4300001 0.51700002 2.7709999 78
-3.2 0.36300001 2.7650001 90
-2.973 0.21600001 2.7650001 73
-2.7449999 0.072999999 2.766 81
-3.4400001 0.43599999 2.77 80
-3.201 0.28999999 2.7609999 96
-2.973 0.15000001 2.7639999 82
-2.74 0.014 2.7650001 87
-3.4430001 0.35499999 2.7639999 79
-3.2090001 0.21699999 2.7639999 94
-2.974 0.083999999 2.766 81
-2.7279999 -0.043000001 2.7590001 86
-3.4549999 0.27500001 2.7679999 79
-3.2079999 0.14300001 2.76 90
-2.967 0.017999999 2.7620001 84
-2.7249999 -0.101 2.7609999 85
-3.46 0.19400001 2.7679999 78
-3.2060001 0.07 2.7590001 87
-2.964 -0.046 2.7620001 87
-2.72 -0.15800001 2.763 87
-3.4560001 0.112 2.7620001 77
-3.2079999 -0.0020000001 2.7620001 94
-2.9530001 -0.111 2.756 83
-2.7090001 -0.21600001 2.7609999 82
-3.4619999 0.030999999 2.766 80
-3.2030001 -0.075000003 2.7590001 88
-2.9489999 -0.176 2.7579999 91
-2.7019999 -0.273 2.763 85
-3.454 -0.048999999 2.76 75
-3.197 -0.148 2.7590001 92
-2.944 -0.241 2.7609999 87
-2.691 -0.329 2.7620001 91
-3.4530001 -0.13 2.7620001 79
-3.194 -0.22 2.7620001 88
-2.9300001 -0.30500001 2.756 77
-2.6730001 -0.38499999 2.756 84
-3.448 -0.211 2.7620001 79
-3.184 -0.29300001 2.7590001 94
-2.915 -0.368 2.7520001 78
-2.6689999 -0.442 2.7650001 86
-3.4389999 -0.292 2.7609999 85
-3.168 -0.36399999 2.7550001 89
-2.911 -0.433 2.7590001 91
-2.652 -0.49599999 2.7609999 93
-3.421 -0.37099999 2.7539999 75
-3.1600001 -0.43700001 2.7579999 90
-2.875 -0.49200001 2.7379999 142
-2.635 -0.551 2.757 87
-3.4189999 -0.45300001 2.7620001 81
-3.1489999 -0.50800002 2.7590001 85
-2.8559999 -0.55400002 2.733 119
-2.6210001 -0.60600001 2.7590001 87
-3.401 -0.53200001 2.7579999 80
-3.1289999 -0.579 2.7550001 92
-2.8440001 -0.616 2.737 127
-2.6040001 -0.66000003 2.7579999 81
-3.3759999 -0.611 2.7520001 80
-3.108 -0.648 2.7520001 104
-2.823 -0.67699999 2.733 120
-2.5799999 -0.71100003 2.7509999 89
-3.365 -0.69099998 2.757 78
-3.075 -0.71499997 2.7390001 117
-2.806 -0.73799998 2.734 121
-2.569 -0.76599997 2.7579999 83
-3.339 -0.76700002 2.7520001 77
-3.0420001 -0.78100002 2.727 131
-2.7909999 -0.80000001 2.7390001 121
-2.546 -0.81800002 2.7539999 91
-3.3150001 -0.84500003 2.7509999 79
-3.0239999 -0.85000002 2.73 142
-2.77 -0.86000001 2.7390001 115
-2.52 -0.86799997 2.747 90
-3.2980001 -0.92400002 2.756 80
-2.997 -0.917 2.727 125
-2.7509999 -0.92000002 2.7409999 117
-2.506 -0.92199999 2.7550001 88
-3.26 -0.99699998 2.747 84
-2.97 -0.98299998 2.7249999 133
-2.7349999 -0.98299998 2.75 105
-2.477 -0.97000003 2.747 95
-3.2320001 -1.073 2.747 89
-2.9449999 -1.05 2.7260001 138
-2.711 -1.041 2.75 98
-2.4530001 -1.02 2.7449999 89
-3.2060001 -1.149 2.7509999 85
-2.911 -1.114 2.721 132
-2.6800001 -1.097 2.7449999 95
-2.4330001 -1.072 2.7490001 95
-3.1689999 -1.221 2.7460001 80
0 0 0 50
-2.6530001 -1.154 2.7449999 92
-2.4070001 -1.1210001 2.747 89
-3.131 -1.2920001 2.744 77
-2.8559999 -1.245 2.7260001 121
-2.625 -1.211 2.7449999 93
-2.3789999 -1.168 2.744 93
-3.0910001 -1.362 2.74 107
-2.8239999 -1.308 2.7260001 115
-2.5929999 -1.266 2.7420001 89
-2.355 -1.2180001 2.7460001 94
-3.027 -1.42 2.7160001 135
-2.789 -1.37 2.7260001 111
-2.5650001 -1.322 2.7449999 94
-2.325 -1.263 2.7420001 102
-2.9860001 -1.489 2.7149999 131
-2.7620001 -1.436 2.734 105
-2.5320001 -1.376 2.744 87
-2.2980001 -1.311 2.7420001 89
-2.951 -1.559 2.72 135
-2.734 -1.502 2.743 98
-2.4979999 -1.429 2.7420001 92
-2.2709999 -1.359 2.744 87
-2.902 -1.622 2.714 126
-2.6919999 -1.559 2.74 94
-2.4649999 -1.482 2.744 93
-2.24 -1.403 2.7420001 101
-2.8540001 -1.686 2.711 112
-2.6570001 -1.6210001 2.744 88
-2.431 -1.535 2.7449999 91
-2.1989999 -1.442 2.7279999 124
-2.8269999 -1.761 2.7290001 107
-2.6110001 -1.676 2.74 91
-2.3900001 -1.5829999 2.7390001 88
-2.1370001 -1.465 2.6889999 150
-2.789 -1.83 2.7390001 90
-2.5639999 -1.729 2.7360001 92
-2.3540001 -1.633 2.74 93
-2.029 -1.454 2.5910001 77
-2.7349999 -1.8890001 2.7349999 82
-2.5239999 -1.7869999 2.7390001 92
-2.3139999 -1.681 2.737 85
-1.9579999 -1.465 2.5380001 63
-2.6889999 -1.9529999 2.74 94
-2.474 -1.8380001 2.734 91
-2.2739999 -1.73 2.7360001 88
-1.956 -1.527 2.575 118
-2.6300001 -2.007 2.733 97
-2.4300001 -1.893 2.737 89
-2.2349999 -1.778 2.7379999 90
-1.977 -1.61 2.6470001 150
-2.5739999 -2.063 2.7320001 85
-2.3829999 -1.9450001 2.737 92
0 0 0 50
-2.0020001 -1.7 2.7260001 100
-2.5190001 -2.118 2.7320001 92
-2.335 -1.9960001 2.737 91
-2.0139999 -1.75 2.562 101
-1.976 -1.749 2.7379999 96
-2.4619999 -2.1719999 2.7320001 93
-2.2809999 -2.0420001 2.733 80
-1.9630001 -1.7819999 2.5469999 74
-1.9349999 -1.785 2.7309999 94
-2.4030001 -2.224 2.73 86
-2.234 -2.0929999 2.7379999 90
-1.971 -1.869 2.612 150
-1.9 -1.827 2.734 99
-2.3469999 -2.277 2.734 91
-2.118 -2.0769999 2.6570001 150
-2.006 -1.987 2.717 95
-1.862 -1.8660001 2.733 98
-2.283 -2.3239999 2.7309999 93
-1.966 -2.0179999 2.5280001 49
-1.972 -2.0409999 2.733 79
-1.824 -1.904 2.733 99
-2.2179999 -2.3659999 2.7260001 95
-1.974 -2.1199999 2.6040001 150
-1.924 -2.079 2.7290001 81
-1.783 -1.939 2.7290001 93
0 0 0 50
-2.0139999 -2.2650001 2.7290001 97
-1.875 -2.1159999 2.727 76
-1.745 -1.978 2.7320001 90
-1.948 -2.2869999 2.539 62
-1.9579999 -2.3039999 2.727 94
-1.83 -2.1589999 2.7309999 81
-1.704 -2.0139999 2.7309999 90
-2.0280001 -2.497 2.7260001 91
-1.903 -2.3469999 2.73 91
-1.779 -2.1930001 2.727 76
-1.661 -2.0469999 2.727 92
-1.966 -2.5409999 2.73 97
-1.846 -2.385 2.73 92
-1.729 -2.2279999 2.7260001 80
-1.624 -2.0880001 2.7349999 92
-1.9 -2.5810001 2.7320001 87
-1.7869999 -2.4200001 2.7279999 87
-1.679 -2.2639999 2.7260001 78
-1.576 -2.115 2.7260001 93
-1.829 -2.6099999 2.7249999 81
-1.729 -2.4560001 2.7290001 85
-1.628 -2.2969999 2.7249999 80
-1.535 -2.151 2.7279999 101
-1.762 -2.6459999 2.7260001 88
-1.67 -2.4920001 2.7309999 84
-1.575 -2.3280001 2.721 85
-1.492 -2.184 2.7290001 89
-1.6950001 -2.6800001 2.727 89
-1.605 -2.516 2.723 86
-1.524 -2.362 2.724 87
-1.449 -2.217 2.7309999 90
-1.624 -2.7079999 2.724 90
-1.55 -2.556 2.7320001 87
-1.471 -2.3929999 2.723 84
-1.401 -2.243 2.724 89
-1.556 -2.7379999 2.7260001 95
-1.4859999 -2.5799999 2.727 90
-1.419 -2.4219999 2.723 82
-1.358 -2.2780001 2.7290001 92
-1.4859999 -2.7650001 2.727 93
-1.42 -2.5999999 2.7179999 85
-1.365 -2.4530001 2.7249999 83
-1.311 -2.306 2.7279999 92
-1.415 -2.789 2.7249999 92
-1.3609999 -2.6329999 2.7249999 90
-1.311 -2.48 2.7249999 81
-1.262 -2.3310001 2.723 85
-1.344 -2.813 2.7260001 95
-1.296 -2.6530001 2.721 86
-1.255 -2.503 2.721 80
-1.216 -2.3599999 2.724 91
-1.2690001 -2.8239999 2.7160001 108
-1.234 -2.677 2.7219999 87
0 0 0 50
-1.1670001 -2.3859999 2.723 91
-1.189 -2.822 2.6949999 150
-1.1720001 -2.7019999 2.7249999 88
-1.1440001 -2.553 2.7219999 76
-1.119 -2.4119999 2.7219999 92
-1.095 -2.78 2.6400001 150
-1.108 -2.7219999 2.724 91
-1.087 -2.573 2.7190001 80
-1.071 -2.4400001 2.7260001 87
-1.008 -2.747 2.595 150
-1.044 -2.7409999 2.7260001 93
-1.031 -2.598 2.723 75
-1.021 -2.4630001 2.724 87
-0.92299998 -2.711 2.5480001 114
-0.98199999 -2.763 2.73 90
-0.97399998 -2.6170001 2.721 81
-0.97000003 -2.484 2.721 91
-0.84799999 -2.6960001 2.5239999 93
-0.91500002 -2.7750001 2.7260001 93
-0.91600001 -2.635 2.72 74
-0.921 -2.5109999 2.7260001 88
-0.778 -2.6960001 2.5150001 47
-0.84799999 -2.779 2.717 88
-0.85900003 -2.654 2.721 84
-0.86900002 -2.5320001 2.7249999 91
-0.71200001 -2.7 2.5120001 64
-0.78600001 -2.8010001 2.727 64
-0.80000001 -2.6689999 2.72 78
-0.81599998 -2.5480001 2.72 93
-0.64700001 -2.7090001 2.5150001 57
-0.71899998 -2.806 2.721 95
-0.74199998 -2.687 2.7219999 57
-0.76499999 -2.5710001 2.723 89
-0.579 -2.7060001 2.5090001 54
-0.65399998 -2.812 2.7179999 86
-0.68400002 -2.7030001 2.724 81
-0.71200001 -2.5880001 2.7219999 89
-0.51300001 -2.7060001 2.507 50
-0.58999997 -2.823 2.721 88
-0.62300003 -2.7090001 2.717 82
-0.65799999 -2.605 2.721 84
-0.449 -2.7119999 2.5120001 50
-0.52499998 -2.8310001 2.7219999 95
-0.56400001 -2.72 2.7160001 79
-0.60600001 -2.6259999 2.7249999 87
-0.38299999 -2.7079999 2.5090001 55
-0.45899999 -2.8299999 2.717 101
-0.505 -2.7320001 2.7179999 81
-0.55199999 -2.642 2.7249999 91
-0.31900001 -2.71 2.513 58
-0.39500001 -2.8380001 2.7219999 98
-0.44600001 -2.7420001 2.7190001 81
-0.49599999 -2.6489999 2.717 91
-0.25600001 -2.711 2.517 76
-0.33000001 -2.8399999 2.721 99
-0.38499999 -2.747 2.7160001 79
-0.442 -2.668 2.723 90
-0.192 -2.704 2.517 81
-0.266 -2.839 2.721 98
-0.32600001 -2.756 2.7190001 80
-0.38600001 -2.6789999 2.721 91
-0.12800001 -2.704 2.523 91
-0.20200001 -2.8380001 2.721 93
-0.266 -2.7609999 2.7179999 83
-0.33000001 -2.687 2.7179999 92
-0.064999998 -2.6930001 2.5209999 89
-0.13699999 -2.8369999 2.7219999 91
-0.206 -2.763 2.7160001 74
-0.27399999 -2.698 2.7179999 92
-0.003 -2.681 2.52 83
-0.072999999 -2.8299999 2.7190001 90
-0.146 -2.766 2.717 73
-0.21799999 -2.714 2.7249999 86
0.059 -2.694 2.5420001 146
-0.0099999998 -2.8269999 2.7219999 87
-0.086000003 -2.7679999 2.717 77
-0.16 -2.7130001 2.7149999 91
0.127 -2.8080001 2.6630001 150
0.052000001 -2.8150001 2.717 93
