# .PCD v0.7 - Point Cloud Data file format
VERSION 0.7
FIELDS x y z intensity
SIZE 4 4 4 4
TYPE F F F F
COUNT 1 1 1 1
WIDTH 1659
HEIGHT 1
VIEWPOINT 0 0 0 1 0 0 0
POINTS 1659
DATA ascii
2.22 3.437 2.3499999 54
2.1359999 3.4360001 2.197 57
2.053 3.4430001 2.0580001 59
2.1949999 3.4389999 2.473 55
2.118 3.444 2.323 54
2.027 3.4349999 2.1689999 57
1.938 3.4360001 2.029 58
2.0940001 3.441 2.441 56
2 3.418 2.2750001 53
1.91 3.4159999 2.131 58
1.835 3.4449999 2.013 58
1.989 3.431 2.401 56
1.91 3.437 2.26 59
1.819 3.4349999 2.119 63
1.727 3.4389999 1.989 63
1.8940001 3.4319999 2.372 57
1.809 3.4330001 2.2309999 61
1.721 3.4400001 2.099 61
1.625 3.4389999 1.97 61
1.803 3.438 2.3469999 59
1.716 3.4400001 2.21 61
1.62 3.4349999 2.076 63
1.525 3.438 1.952 64
1.7130001 3.4419999 2.323 56
1.618 3.434 2.184 63
1.526 3.4400001 2.059 64
1.425 3.4360001 1.9349999 62
1.617 3.431 2.29 57
1.529 3.4389999 2.165 61
1.432 3.441 2.0420001 64
1.329 3.434 1.921 66
1.527 3.428 2.2639999 56
1.437 3.4349999 2.142 62
1.339 3.4400001 2.0250001 63
1.2359999 3.437 1.91 67
1.4450001 3.4389999 2.2479999 61
1.348 3.4360001 2.1240001 64
1.249 3.441 2.01 64
1.143 3.4330001 1.896 69
1.357 3.4330001 2.223 61
1.26 3.434 2.105 62
1.159 3.4389999 1.995 63
1.051 3.431 1.885 65
1.272 3.431 2.201 63
1.177 3.441 2.0929999 62
1.0700001 3.438 1.983 63
0.96200001 3.4330001 1.878 67
1.189 3.431 2.1830001 64
1.092 3.4430001 2.079 66
0.98299998 3.434 1.969 63
0.87300003 3.4330001 1.87 70
1.1059999 3.428 2.1630001 64
1.007 3.438 2.063 73
0.89700001 3.4319999 1.9579999 62
0.787 3.4349999 1.865 70
1.03 3.441 2.154 65
0.92500001 3.441 2.0510001 67
0.81199998 3.431 1.949 63
0.70300001 3.4449999 1.8660001 78
0.949 3.438 2.1359999 65
0.84200001 3.4330001 2.0350001 70
0.73000002 3.4349999 1.943 63
0.61400002 3.4319999 1.855 79
0.86699998 3.428 2.1159999 66
0.76300001 3.4400001 2.0280001 73
0.64600003 3.428 1.933 66
0.53100002 3.434 1.853 71
0.792 3.438 2.109 67
0.68000001 3.427 2.0109999 70
0.56400001 3.4260001 1.926 66
0.447 3.434 1.852 80
0.713 3.4319999 2.092 67
0.60100001 3.4319999 2.006 75
0.484 3.4289999 1.924 59
0.36199999 3.424 1.846 73
0.63499999 3.4260001 2.0769999 67
0.523 3.434 2 74
0.40200001 3.424 1.918 59
0.28 3.4289999 1.85 71
0.56 3.4360001 2.073 67
0.44499999 3.4349999 1.994 71
0.32300001 3.425 1.916 63
0.197 3.4159999 1.845 76
0.484 3.434 2.062 79
0.366 3.4260001 1.983 71
0.243 3.4300001 1.918 62
0.116 3.4260001 1.853 79
0.40799999 3.434 2.053 75
0.28999999 3.4330001 1.983 76
0.163 3.415 1.909 69
0.034000002 3.425 1.857 70
0.333 3.4319999 2.0439999 74
0.212 3.4230001 1.974 81
0.083999999 3.4189999 1.9119999 61
-0.046999998 3.4260001 1.863 78
0.25799999 3.4330001 2.0380001 74
0.13500001 3.4260001 1.973 69
0.0060000001 3.4289999 1.919 68
-0.12899999 3.424 1.868 75
0.182 3.4100001 2.0190001 82
0.059 3.4319999 1.975 77
-0.072999999 3.4260001 1.921 67
-0.20999999 3.424 1.875 70
0.108 3.4349999 2.029 75
-0.017000001 3.4289999 1.973 77
-0.152 3.4219999 1.923 65
-0.29300001 3.4319999 1.888 81
0.033 3.4360001 2.0250001 78
-0.093999997 3.428 1.973 70
-0.23100001 3.425 1.9299999 61
-0.375 3.4300001 1.897 77
-0.039999999 3.428 2.0179999 82
-0.171 3.4319999 1.977 80
-0.31 3.418 1.932 64
-0.45699999 3.4260001 1.906 79
-0.116 3.437 2.0209999 80
-0.248 3.4289999 1.977 77
-0.389 3.4200001 1.9400001 62
-0.54100001 3.431 1.92 73
-0.191 3.437 2.0190001 76
-0.32499999 3.424 1.977 75
-0.47 3.428 1.9529999 72
-0.62400001 3.431 1.933 71
-0.266 3.4289999 2.0150001 74
-0.40400001 3.4319999 1.987 72
-0.55000001 3.421 1.9579999 70
-0.70700002 3.425 1.944 70
-0.34200001 3.434 2.0179999 76
-0.48199999 3.4300001 1.9910001 74
-0.63200003 3.4230001 1.969 66
-0.79100001 3.4200001 1.9579999 51
-0.41800001 3.434 2.0190001 76
-0.56099999 3.428 1.9960001 76
-0.71600002 3.4319999 1.987 65
-0.71100003 2.7709999 1.6 50
-0.49399999 3.427 2.0190001 73
-0.64099997 3.428 2.0039999 74
-0.64300001 2.7639999 1.61 11
-0.78299999 2.777 1.619 69
-0.57200003 3.4300001 2.0239999 79
-0.72100002 3.428 2.013 68
-0.71200001 2.7690001 1.625 65
-0.85900003 2.793 1.6440001 55
-0.64899999 3.425 2.026 81
-0.64600003 2.7650001 1.631 16
-0.78399998 2.7809999 1.6440001 38
-1.14 3.4200001 2.0339999 36
-0.72899997 3.428 2.033 71
-0.71499997 2.777 1.646 34
-1.049 3.421 2.039 35
-1.229 3.414 2.0539999 65
-0.76099998 3.227 1.92 32
-0.78299999 2.7780001 1.6569999 6
-1.138 3.425 2.059 65
-1.324 3.424 2.0840001 66
-0.71799999 2.77 1.654 11
-1.05 3.427 2.0580001 70
-1.226 3.425 2.0780001 64
-1.416 3.421 2.108 64
-0.96799999 3.4189999 2.0510001 54
-1.138 3.4360001 2.0780001 69
-1.316 3.4260001 2.0999999 64
-1.51 3.4170001 2.1329999 64
-1.054 3.431 2.0680001 70
-1.224 3.4319999 2.0910001 70
-1.405 3.421 2.119 65
-1.61 3.4260001 2.168 64
-1.1390001 3.4300001 2.079 70
-1.308 3.4230001 2.1029999 70
-1.5 3.4260001 2.1459999 68
-1.707 3.421 2.1960001 60
-1.223 3.428 2.0899999 69
-1.4 3.427 2.1240001 72
-1.592 3.4200001 2.168 65
-0.53399998 1.011 0.65899998 23
-1.3049999 3.415 2.096 68
-1.49 3.424 2.142 65
-1.688 3.4189999 2.194 64
-0.54900002 0.98299998 0.65100002 9
-1.395 3.418 2.1129999 69
-1.5829999 3.4260001 2.165 67
-0.52999997 1.015 0.66000003 18
-0.58700001 0.99599999 0.67000002 8
-1.484 3.4170001 2.1289999 69
-1.6799999 3.428 2.1889999 66
-0.54799998 0.99400002 0.65499997 9
-0.63300002 1.018 0.69700003 9
-1.577 3.4189999 2.148 67
-0.53299999 1.028 0.66399997 8
-0.57099998 0.97899997 0.65499997 9
-0.648 0.99000001 0.69 12
-1.67 3.418 2.1659999 67
-0.54799998 1.002 0.65499997 7
-0.63099998 1.029 0.69800001 8
-0.667 0.96899998 0.68800002 14
-1.766 3.4159999 2.1860001 65
-0.56699997 0.98299998 0.64999998 9
-0.64499998 1 0.68900001 11
-0.68400002 0.94599998 0.685 15
-0.54699999 1.003 0.648 17
-0.63099998 1.038 0.69599998 10
-0.65899998 0.97100002 0.68099999 12
-0.70899999 0.93400002 0.69 13
-0.56400001 0.98100001 0.64099997 7
-0.63800001 0.99800003 0.67900002 10
-0.67900002 0.954 0.68000001 14
-0.72799999 0.91500002 0.69 14
-0.63099998 1.041 0.68800002 8
-0.65899998 0.98100001 0.67699999 12
-0.699 0.935 0.68000001 13
-0.75 0.89999998 0.69300002 13
-0.64200002 1.008 0.67500001 12
-0.67500001 0.95700002 0.671 13
-0.71799999 0.91600001 0.67799997 11
-0.78899997 0.903 0.71200001 8
-0.66100001 0.98699999 0.66900003 15
-0.69599998 0.94 0.67000002 14
-0.741 0.903 0.68099999 11
-0.90600002 0.99000001 0.79900002 9
-0.67299998 0.958 0.65899998 16
-0.71499997 0.92199999 0.66799998 12
-0.76499999 0.889 0.685 9
-1.059 1.104 0.91399997 6
-0.68900001 0.935 0.653 18
-0.73699999 0.90600002 0.66900003 11
-0.875 0.97100002 0.76499999 8
-3.3299999 3.3169999 2.8150001 69
-0.70899999 0.917 0.64999998 17
-0.759 0.89099997 0.67000002 10
-1.051 1.115 0.898 5
-3.3889999 3.224 2.8099999 70
-0.73000002 0.90200001 0.64999998 17
-0.829 0.93000001 0.71399999 6
-3.3380001 3.381 2.7880001 72
-3.4530001 3.138 2.8110001 71
-0.75199997 0.88599998 0.64999998 16
-1.046 1.1210001 0.87800002 9
-3.428 3.3169999 2.8039999 73
-3.5120001 3.0469999 2.809 70
-0.79299998 0.89300001 0.667 8
-1.067 1.0930001 0.875 14
-3.5090001 3.244 2.813 74
-3.572 2.9590001 2.8110001 68
-1.046 1.125 0.85699999 12
-3.454 3.3770001 2.766 67
-3.566 3.1489999 2.8039999 73
0 0 0 0
-1.068 1.096 0.85299999 45
-3.579 3.3429999 2.8050001 74
-3.6329999 3.063 2.8050001 74
-0.73799998 0.55699998 0.56400001 8
-1.092 1.071 0.85100001 6
-3.6500001 3.2550001 2.8010001 75
0 0 0 0
-0.72399998 0.52100003 0.54500002 9
-3.516 3.293 2.6760001 45
-3.7249999 3.1730001 2.803 66
-0.72600001 0.55800003 0.542 5
-0.73699999 0.505 0.54799998 8
-3.7639999 3.365 2.802 59
-3.799 3.089 2.8050001 74
-0.71600002 0.52399999 0.52600002 8
-0.74199998 0.484 0.54500002 10
-3.8469999 3.2839999 2.803 66
0 0 0 0
-0.708 0.49399999 0.51300001 15
-0.74400002 0.461 0.53899997 12
0 0 0 0
-0.70599997 0.52200001 0.50300002 10
-0.72299999 0.48100001 0.51599997 11
-0.76999998 0.454 0.55299997 10
-0.70899999 0.55000001 0.49599999 5
-0.71600002 0.50400001 0.50199997 10
-0.74400002 0.47099999 0.52499998 11
-0.787 0.44100001 0.55900002 12
-0.70700002 0.523 0.48500001 10
-0.72600001 0.48699999 0.50099999 10
-0.755 0.454 0.52499998 11
-0.78899997 0.419 0.55500001 12
-0.71200001 0.50199997 0.48100001 11
-0.736 0.47 0.5 10
-0.773 0.44100001 0.53100002 10
-0.79799998 0.40099999 0.55599999 13
-0.71399999 0.479 0.47400001 15
-0.755 0.458 0.50599998 10
-0.80299997 0.43399999 0.546 11
-0.80500001 0.38100001 0.55699998 12
-0.73900002 0.47099999 0.48199999 11
-0.77999997 0.449 0.51599997 11
-0.815 0.417 0.54799998 11
-0.81400001 0.36399999 0.55900002 13
-0.75400001 0.456 0.484 10
-0.79500002 0.43399999 0.51899999 11
-0.81199998 0.39300001 0.54100001 12
-0.81900001 0.34400001 0.55800003 13
-0.77999997 0.44800001 0.49399999 9
-0.82099998 0.42399999 0.52999997 10
-0.82300001 0.375 0.54299998 12
-0.833 0.32800001 0.56400001 10
-0.80400002 0.43700001 0.50199997 10
-0.83200002 0.405 0.53100002 11
-0.82499999 0.354 0.54000002 11
-0.82200003 0.303 0.55299997 10
-0.83099997 0.42699999 0.51200002 12
-0.82499999 0.37799999 0.52100003 15
-0.82300001 0.331 0.53500003 11
-0.80199999 0.27599999 0.537 11
-0.85399997 0.414 0.51999998 11
-0.83999997 0.36199999 0.52499998 12
-0.82200003 0.30899999 0.52999997 10
-0.81099999 0.25799999 0.54000002 11
-0.83499998 0.38100001 0.50199997 17
-0.83399999 0.33700001 0.51700002 16
-0.81800002 0.287 0.523 16
-0.81599998 0.23999999 0.54100001 11
-0.84200001 0.36000001 0.50099999 17
-0.83200002 0.31400001 0.51099998 9
-0.82499999 0.26800001 0.52499998 11
-0.83200002 0.22499999 0.55000001 11
-0.847 0.33899999 0.498 11
-0.824 0.28999999 0.50199997 16
-0.83099997 0.25 0.52600002 11
-0.85699999 0.212 0.565 9
-0.84100002 0.31400001 0.49000001 11
-0.838 0.273 0.50700003 11
-0.83399999 0.23 0.52499998 11
-0.89200002 0.199 0.58600003 8
-0.83200002 0.289 0.48100001 18
-0.83399999 0.25099999 0.50099999 15
-0.86000001 0.21600001 0.53899997 9
-0.89700001 0.18000001 0.588 7
-0.838 0.26899999 0.47999999 11
-0.847 0.233 0.50599998 11
-0.89600003 0.204 0.56 9
-0.903 0.16 0.59100002 7
-0.82800001 0.244 0.47099999 16
-0.87699997 0.22 0.52100003 10
-0.91399997 0.18700001 0.56900001 5
-0.91100001 0.141 0.59500003 7
-0.85600001 0.23100001 0.48300001 10
-0.90399998 0.205 0.53399998 9
-0.92199999 0.167 0.57200003 2
-0.92299998 0.122 0.60299999 5
-0.89499998 0.219 0.50199997 12
-4.059 0.82300001 2.388 7
-4.052 0.64099997 2.5079999 8
-4.0560002 0.449 2.648 12
-0.91399997 0.20100001 0.509 6
-4.0430002 0.722 2.369 69
-4.0500002 0.54799998 2.5020001 71
-4.052 0.359 2.645 69
-4.0440001 0.78899997 2.244 15
-4.0510001 0.62800002 2.3659999 70
-4.0479999 0.454 2.4979999 70
-4.0510001 0.26899999 2.6470001 66
-4.0489998 0.69099998 2.237 74
-4.0609999 0.53299999 2.3659999 75
-4.0500002 0.36300001 2.497 72
-4.0570002 0.18099999 2.6530001 65
-4.0479999 0.59200001 2.227 73
-4.0419998 0.43599999 2.3499999 72
-4.053 0.271 2.4979999 70
-4.0539999 0.093000002 2.654 66
-4.0469999 0.495 2.22 72
-4.0489998 0.34200001 2.3510001 72
-4.052 0.18000001 2.4979999 72
-4.0469999 0.0040000002 2.655 67
-4.0500002 0.398 2.2149999 75
-4.0479999 0.248 2.348 73
-4.053 0.089000002 2.5 72
-4.052 -0.082999997 2.665 66
-4.0479999 0.301 2.21 74
-4.0500002 0.155 2.348 74
-4.046 -0.001 2.4990001 73
-4.0489998 -0.17 2.6689999 67
-4.0409999 0.204 2.204 75
-4.0500002 0.061000001 2.349 73
-4.0560002 -0.092 2.5090001 72
-4.0450001 -0.25799999 2.6760001 66
-4.0250001 0.108 2.1930001 79
-4.0510001 -0.032000002 2.3510001 74
-4.0479999 -0.183 2.51 73
-4.0539999 -0.347 2.691 67
-4.0240002 0.011 2.1919999 79
-4.0489998 -0.125 2.3529999 73
-4.0510001 -0.27399999 2.5190001 74
-4.0469999 -0.435 2.698 68
-4.0250001 -0.082999997 2.194 79
-4.0489998 -0.22 2.3570001 74
-4.0430002 -0.36500001 2.5220001 72
-4.0440001 -0.523 2.7079999 72
-4.027 -0.17900001 2.198 78
-4.0479999 -0.31400001 2.3629999 73
-4.0500002 -0.45699999 2.5350001 69
-4.046 -0.61199999 2.7219999 71
-4.0359998 -0.27599999 2.207 80
-4.0510001 -0.40799999 2.3710001 72
-4.0469999 -0.54900002 2.5450001 71
-4.04 -0.69999999 2.7320001 73
-4.0370002 -0.373 2.2130001 77
-4.0570002 -0.50400001 2.3829999 75
-4.04 -0.63999999 2.552 69
-4.027 -0.78799999 2.74 75
-4.046 -0.472 2.2249999 74
-4.0500002 -0.59899998 2.3900001 73
-4.0430002 -0.73400003 2.5669999 66
-4.0139999 -0.875 2.747 74
-4.0450001 -0.56999999 2.233 73
-4.0469999 -0.69499999 2.4000001 74
-4.0489998 -0.82800001 2.586 65
-3.9879999 -0.95999998 2.7479999 76
-4.0380001 -0.66799998 2.2379999 73
-4.0580001 -0.79400003 2.4189999 71
-4.039 -0.921 2.595 66
-3.9619999 -1.044 2.75 75
-4.0549998 -0.77100003 2.2590001 74
-4.0539999 -0.89099997 2.431 70
-4.0430002 -1.017 2.615 66
-3.938 -1.128 2.753 71
-4.0440001 -0.87 2.266 69
-4.0489998 -0.98799998 2.4430001 71
-4.0479999 -1.115 2.6370001 66
-3.901 -1.2079999 2.7490001 69
-4.0430002 -0.97100002 2.28 70
-4.0479999 -1.0880001 2.46 70
-4.046 -1.212 2.6570001 65
-3.8670001 -1.289 2.7479999 71
-4.0430002 -1.075 2.296 67
-4.0560002 -1.192 2.4849999 74
-3.921 -1.271 2.5969999 70
-3.839 -1.3710001 2.753 69
-4.053 -1.182 2.3199999 67
-4.0479999 -1.293 2.5009999 70
-3.957 -1.381 2.6440001 67
-3.7950001 -1.447 2.747 69
-4.046 -1.2869999 2.336 68
-4.0479999 -1.397 2.523 65
-4.0110002 -1.501 2.7060001 81
-3.753 -1.524 2.743 70
-4.0469999 -1.3940001 2.358 71
-4.039 -1.499 2.5420001 66
-4.0019999 -1.6 2.7260001 80
-3.7160001 -1.602 2.7449999 72
-3.9530001 -1.469 2.326 107
-4.0289998 -1.603 2.562 65
-3.9790001 -1.694 2.7390001 72
-3.677 -1.678 2.7449999 70
-3.95 -1.576 2.349 91
-3.9909999 -1.696 2.5650001 65
-3.927 -1.777 2.734 70
-3.632 -1.752 2.7420001 69
-3.9530001 -1.6900001 2.378 86
-3.9300001 -1.778 2.556 64
-3.878 -1.859 2.7309999 70
-3.592 -1.8279999 2.744 71
-4.0409999 -1.8430001 2.46 65
-3.9230001 -1.887 2.5829999 67
-3.8329999 -1.944 2.734 71
-3.5469999 -1.9 2.743 71
-4.039 -1.962 2.4909999 68
-3.987 -2.0320001 2.6589999 74
-3.7850001 -2.026 2.734 65
-3.4960001 -1.969 2.7390001 70
-4.0409999 -2.0840001 2.526 68
-4.0229998 -2.1700001 2.72 76
-3.7309999 -2.105 2.7320001 69
-3.4519999 -2.0420001 2.7409999 71
-4.0279999 -2.201 2.5550001 65
-3.977 -2.2650001 2.7279999 75
-3.6830001 -2.188 2.7349999 70
-3.4030001 -2.1110001 2.7390001 69
-3.967 -2.2939999 2.556 61
-3.9119999 -2.3499999 2.724 70
-3.6240001 -2.263 2.7320001 70
-3.3469999 -2.1760001 2.733 71
-3.902 -2.3829999 2.5539999 56
-3.8510001 -2.437 2.7249999 62
-3.5650001 -2.3369999 2.7290001 67
-3.303 -2.2479999 2.7390001 70
-4.02 -2.5899999 2.677 77
-3.7839999 -2.5190001 2.723 70
-3.5109999 -2.4159999 2.7320001 68
-3.2490001 -2.313 2.737 71
-4.0139999 -2.7260001 2.7219999 77
-3.7260001 -2.608 2.7279999 70
-3.4449999 -2.484 2.7260001 69
-3.1930001 -2.3759999 2.733 68
-3.9430001 -2.8199999 2.7249999 78
-3.651 -2.6830001 2.723 70
-3.3800001 -2.5539999 2.723 70
-3.1440001 -2.444 2.737 69
-3.6070001 -2.7130001 2.5420001 55
-3.5799999 -2.7609999 2.7219999 70
-3.3269999 -2.631 2.73 67
-3.085 -2.5050001 2.734 69
-3.5480001 -2.8039999 2.553 33
-3.497 -2.829 2.7119999 72
-3.26 -2.698 2.727 68
-3.0239999 -2.563 2.7290001 71
-3.473 -2.8840001 2.5539999 47
-3.211 -2.723 2.543 57
-3.1919999 -2.7639999 2.724 69
-2.971 -2.6270001 2.7320001 71
-3.303 -2.881 2.4860001 45
-3.1530001 -2.802 2.553 47
-3.1210001 -2.825 2.7190001 71
-2.9119999 -2.6860001 2.7309999 69
-3.148 -2.882 2.4260001 47
-3.1029999 -2.8889999 2.5710001 47
-2.9030001 -2.7479999 2.586 67
-2.849 -2.7420001 2.7279999 71
-3 -2.8829999 2.3710001 49
-2.9679999 -2.8940001 2.5179999 48
-2.7620001 -2.7320001 2.516 48
-2.793 -2.8039999 2.7320001 70
-2.8570001 -2.881 2.3180001 51
-2.8239999 -2.885 2.457 47
-2.7090001 -2.8010001 2.527 43
-2.694 -2.8199999 2.694 68
-2.7160001 -2.8740001 2.2650001 51
-2.698 -2.8870001 2.4100001 49
-2.6719999 -2.888 2.5550001 48
-2.4920001 -2.721 2.55 58
-2.5869999 -2.8729999 2.22 58
-2.5739999 -2.8840001 2.362 50
-2.552 -2.8829999 2.503 47
-2.414 -2.75 2.53 45
-2.122 -2.474 1.877 95
-2.454 -2.882 2.3169999 49
-2.4419999 -2.885 2.46 47
-2.4059999 -2.8599999 2.586 46
-2.016 -2.4690001 1.841 73
-2.342 -2.8829999 2.2780001 49
-2.3329999 -2.8840001 2.4170001 48
-2.329 -2.8900001 2.569 46
-1.916 -2.4660001 1.809 80
-2.2219999 -2.869 2.2309999 53
-2.227 -2.881 2.3759999 49
-2.2320001 -2.891 2.5280001 46
-1.842 -2.493 1.801 52
-2.0910001 -2.8329999 2.1689999 50
-2.1300001 -2.885 2.3429999 50
-2.1329999 -2.8859999 2.4849999 47
-1.697 -2.4159999 1.72 68
-2.027 -2.8840001 2.1760001 56
-2.029 -2.8789999 2.3039999 49
-2.0409999 -2.8870001 2.4489999 48
-1.6160001 -2.4230001 1.701 88
-1.874 -2.802 2.085 150
-1.937 -2.882 2.273 52
-1.951 -2.8870001 2.414 48
-1.534 -2.425 1.682 88
-1.536 -2.4159999 1.775 150
-1.847 -2.8840001 2.2449999 56
-1.8609999 -2.882 2.378 49
-1.452 -2.4219999 1.66 109
-1.4630001 -2.424 1.7589999 74
-1.756 -2.8800001 2.214 56
-1.776 -2.8829999 2.3469999 50
-1.376 -2.425 1.6440001 81
-1.387 -2.4219999 1.737 74
-1.67 -2.881 2.188 55
-1.692 -2.881 2.3169999 51
-1.3049999 -2.4349999 1.6339999 54
-1.312 -2.4189999 1.717 79
-1.5829999 -2.875 2.1589999 68
-1.612 -2.8829999 2.29 49
-1.281 -2.5350001 1.6849999 31
-1.267 -2.47 1.7359999 2
-1.5 -2.8729999 2.135 56
-1.534 -2.8829999 2.2650001 49
-1.294 -2.723 1.795 0
-1.3890001 -2.869 1.998 67
-1.418 -2.868 2.1099999 55
-1.456 -2.882 2.2390001 54
-1.279 -2.8659999 1.875 68
-1.306 -2.8640001 1.977 69
-1.3430001 -2.8729999 2.0929999 55
-1.38 -2.8800001 2.2149999 53
-1.197 -2.8659999 1.862 69
-1.23 -2.8710001 1.966 66
-1.263 -2.8659999 2.0699999 54
-1.3 -2.8670001 2.1830001 54
-1.115 -2.862 1.848 78
-1.151 -2.8670001 1.949 62
-1.186 -2.862 2.05 52
-1.228 -2.8670001 2.1630001 57
-1.035 -2.8570001 1.834 76
-1.075 -2.868 1.937 70
-1.115 -2.868 2.039 55
-1.156 -2.865 2.1429999 56
-0.96100003 -2.8640001 1.83 74
-0.99699998 -2.858 1.919 73
-1.0420001 -2.865 2.0220001 54
-1.086 -2.8640001 2.1240001 58
-0.88499999 -2.8629999 1.822 67
-0.92500001 -2.8629999 1.9119999 70
-0.97000003 -2.8640001 2.007 53
-1.02 -2.8710001 2.112 59
-0.81 -2.8640001 1.816 62
-0.852 -2.8599999 1.901 72
-0.89899999 -2.8599999 1.992 54
-0.95300001 -2.8729999 2.098 60
-0.73699999 -2.865 1.812 62
-0.78200001 -2.865 1.896 69
-0.83200002 -2.8670001 1.9859999 59
-0.88300002 -2.8640001 2.0769999 58
-0.667 -2.8770001 1.8150001 63
-0.71100003 -2.8629999 1.888 69
-0.76099998 -2.8570001 1.969 59
-0.81900001 -2.8699999 2.0669999 64
-0.59299999 -2.8699999 1.808 55
-0.64200002 -2.8659999 1.8839999 65
-0.69499999 -2.8629999 1.964 59
-0.75300002 -2.868 2.0539999 57
-0.52200001 -2.8710001 1.807 58
-0.574 -2.8729999 1.8839999 62
-0.62800002 -2.8599999 1.954 58
-0.68800002 -2.8659999 2.0409999 66
-0.45199999 -2.8770001 1.8099999 55
-0.505 -2.868 1.878 59
-0.56199998 -2.8599999 1.947 53
-0.62300003 -2.865 2.03 72
0 0 0 0
-0.43799999 -2.8729999 1.878 58
-0.498 -2.8659999 1.946 54
-0.56099999 -2.868 2.0220001 70
-0.067000002 -0.61500001 0.38699999 14
-0.079000004 -0.61500001 0.40099999 10
0 0 0 0
0 0 0 0
-0.052000001 -0.61799997 0.38999999 15
-0.064999998 -0.61400002 0.40099999 12
0 0 0 0
-0.108 -0.71399999 0.49900001 7
-0.037 -0.61400002 0.38800001 12
-0.050000001 -0.61199999 0.40000001 12
0 0 0 0
-0.081 -0.62800002 0.43799999 7
-0.022 -0.60600001 0.384 13
-0.035999998 -0.61299998 0.40099999 11
0 0 0 0
-0.064999998 -0.60600001 0.421 12
-0.0080000004 -0.60900003 0.38800001 13
0 0 0 0
-0.037 -0.60299999 0.40599999 13
0 0 0 0
0 0 0 0
-0.0080000004 -0.60100001 0.39399999 13
-0.024 -0.60900003 0.41 12
-0.039999999 -0.61199999 0.42300001 12
0.021 -0.61400002 0.39399999 12
0 0 0 0
0 0 0 0
0 0 0 0
0 0 0 0
0 0 0 0
0.0020000001 -0.60799998 0.41 11
-0.013 -0.60299999 0.41600001 12
0 0 0 0
0.033 -0.60900003 0.403 12
0 0 0 0
0 0 0 0
0.067000002 -0.63599998 0.41499999 12
0 0 0 0
0.029999999 -0.61799997 0.41800001 12
0.012 -0.60600001 0.417 13
0.086000003 -0.667 0.43900001 7
0.064000003 -0.63999999 0.42699999 10
0 0 0 0
0 0 0 0
0.108 -0.70200002 0.465 13
0 0 0 0
0.059 -0.634 0.43099999 9
0.037999999 -0.61199999 0.42199999 11
0.127 -0.71600002 0.47799999 13
0.1 -0.68300003 0.461 6
0 0 0 0
0 0 0 0
0.13500001 -0.671 0.45199999 14
0.119 -0.70200002 0.477 11
0.092 -0.667 0.456 6
0.067000002 -0.63700002 0.44 11
0.153 -0.67799997 0.461 11
0.12800001 -0.66399997 0.454 11
0.107 -0.667 0.458 10
0.082000002 -0.64300001 0.44499999 7
0.189 -0.75199997 0.51599997 2
0.146 -0.67400002 0.46399999 11
0.122 -0.66600001 0.46000001 10
0.097999997 -0.65100002 0.45199999 13
0.79500002 -2.8740001 1.992 11
0.169 -0.699 0.48500001 6
0.139 -0.67199999 0.46700001 11
0.113 -0.65799999 0.458 11
0.86699998 -2.869 2.0109999 63
0.76200002 -2.8659999 2.006 10
0.153 -0.66600001 0.46599999 7
0.12899999 -0.66399997 0.46399999 11
0.93900001 -2.8629999 2.03 63
0.83099997 -2.862 2.0209999 63
0.192 -0.75800002 0.53299999 2
0.14399999 -0.66500002 0.46599999 8
1.015 -2.8670001 2.0580001 60
0.90200001 -2.8629999 2.0409999 61
0.79400003 -2.8670001 2.029 12
0.169 -0.70599997 0.49599999 6
1.091 -2.868 2.0840001 58
0.97299999 -2.8599999 2.059 60
0.86199999 -2.865 2.043 55
0.75400001 -2.8659999 2.026 13
1.168 -2.8670001 2.1110001 56
1.049 -2.869 2.0869999 61
0.92900002 -2.859 2.0550001 55
0.82200003 -2.868 2.039 65
1.247 -2.869 2.142 59
1.122 -2.8640001 2.1070001 65
1.003 -2.865 2.0769999 56
0.89099997 -2.869 2.0510001 67
1.3279999 -2.8710001 2.1760001 57
1.198 -2.865 2.1329999 60
1.076 -2.8670001 2.0969999 52
0.95899999 -2.8670001 2.063 58
1.41 -2.8710001 2.2090001 54
1.277 -2.8710001 2.1630001 63
1.147 -2.862 2.1129999 53
1.029 -2.8670001 2.0769999 59
1.495 -2.8729999 2.2460001 52
1.357 -2.8729999 2.1930001 57
1.221 -2.862 2.1340001 53
1.103 -2.872 2.0969999 59
1.5829999 -2.878 2.2869999 53
1.439 -2.8759999 2.2249999 54
1.3 -2.869 2.1619999 55
1.17 -2.8610001 2.105 58
1.666 -2.8699999 2.3199999 51
1.521 -2.8770001 2.257 55
1.378 -2.8699999 2.188 55
1.245 -2.862 2.1240001 60
1.76 -2.878 2.368 49
1.603 -2.8740001 2.2880001 54
1.457 -2.869 2.2130001 56
1.323 -2.8670001 2.1470001 58
1.851 -2.875 2.4100001 50
1.688 -2.8699999 2.3210001 53
1.54 -2.8729999 2.244 56
1.401 -2.8699999 2.1700001 56
1.9450001 -2.8740001 2.4560001 49
1.7819999 -2.8789999 2.3659999 53
1.6210001 -2.869 2.2709999 53
1.477 -2.8640001 2.188 56
2.0480001 -2.881 2.5120001 50
1.8710001 -2.8770001 2.404 51
1.707 -2.869 2.302 54
1.5599999 -2.868 2.2160001 57
2.145 -2.875 2.559 50
1.961 -2.872 2.4419999 48
1.798 -2.875 2.3399999 56
1.646 -2.8740001 2.2449999 50
2.181 -2.789 2.536 42
2.059 -2.8729999 2.4890001 48
1.8839999 -2.8699999 2.3710001 49
1.732 -2.8740001 2.273 51
2.221 -2.71 2.5190001 50
2.155 -2.869 2.5320001 49
1.977 -2.869 2.4089999 51
1.821 -2.8759999 2.3050001 52
2.4159999 -2.8139999 2.678 69
2.2349999 -2.8399999 2.556 46
2.076 -2.8740001 2.454 49
1.913 -2.8770001 2.3380001 53
2.5009999 -2.7820001 2.711 71
2.26 -2.743 2.52 46
2.1719999 -2.8699999 2.4920001 48
2.0050001 -2.875 2.3699999 50
2.5569999 -2.7179999 2.7160001 72
2.369 -2.747 2.5780001 59
2.276 -2.8710001 2.54 49
2.1010001 -2.875 2.4059999 53
2.6110001 -2.652 2.7179999 71
2.5309999 -2.8050001 2.6919999 75
2.362 -2.8469999 2.566 48
2.2019999 -2.8759999 2.4449999 47
2.6530001 -2.576 2.711 70
2.6159999 -2.7709999 2.721 74
2.3789999 -2.7409999 2.52 48
2.3050001 -2.875 2.487 48
2.7030001 -2.5079999 2.714 73
2.6689999 -2.704 2.7190001 71
2.4649999 -2.7149999 2.5480001 58
2.4200001 -2.8840001 2.539 51
2.7509999 -2.4389999 2.7160001 69
2.723 -2.638 2.72 70
2.664 -2.806 2.691 71
2.516 -2.8670001 2.5710001 50
2.7950001 -2.3670001 2.717 71
2.777 -2.572 2.7219999 71
2.7460001 -2.7650001 2.7119999 74
2.546 -2.773 2.5350001 51
2.8380001 -2.2969999 2.7179999 69
2.823 -2.5 2.7179999 70
2.8039999 -2.701 2.7119999 73
2.615 -2.723 2.5409999 57
2.875 -2.2219999 2.7149999 70
2.8740001 -2.4330001 2.72 70
2.865 -2.638 2.7160001 72
2.8169999 -2.8050001 2.674 69
2.914 -2.1489999 2.7149999 70
2.928 -2.368 2.7249999 74
2.921 -2.572 2.7160001 74
2.921 -2.78 2.711 70
2.957 -2.0810001 2.721 68
2.9719999 -2.296 2.724 72
2.971 -2.4990001 2.711 71
2.99 -2.72 2.7160001 70
2.993 -2.007 2.7219999 68
3.013 -2.2219999 2.7219999 71
3.033 -2.438 2.72 72
3.0510001 -2.652 2.7149999 70
3.0209999 -1.9299999 2.717 66
3.053 -2.148 2.72 71
3.0840001 -2.3670001 2.7190001 71
3.109 -2.582 2.7130001 69
3.0599999 -1.86 2.724 69
3.095 -2.076 2.7219999 70
3.131 -2.2939999 2.717 71
3.168 -2.513 2.7130001 69
3.0829999 -1.7819999 2.717 70
3.1300001 -2.0009999 2.7179999 70
3.1830001 -2.2249999 2.721 73
3.2249999 -2.4400001 2.7119999 69
3.1110001 -1.707 2.717 70
3.177 -1.932 2.727 73
3.23 -2.151 2.721 71
3.2869999 -2.372 2.717 68
3.142 -1.635 2.7219999 69
3.214 -1.858 2.727 71
3.273 -2.075 2.7190001 73
3.3469999 -2.303 2.7219999 68
3.168 -1.5599999 2.721 67
3.24 -1.778 2.7219999 72
3.325 -2.0039999 2.727 74
3.398 -2.2249999 2.72 65
3.1919999 -1.4859999 2.723 67
3.2809999 -1.707 2.7279999 72
3.362 -1.925 2.723 73
3.45 -2.148 2.721 68
3.217 -1.4119999 2.7249999 69
3.316 -1.632 2.7320001 74
3.401 -1.848 2.7219999 74
3.5050001 -2.073 2.7249999 69
3.2420001 -1.339 2.73 66
3.342 -1.554 2.73 72
3.4449999 -1.772 2.7279999 75
3.546 -1.99 2.72 68
3.2609999 -1.2640001 2.73 67
3.3729999 -1.479 2.733 71
3.4790001 -1.692 2.7260001 72
3.595 -1.911 2.723 69
3.28 -1.1900001 2.7320001 68
3.3959999 -1.4 2.7309999 73
3.513 -1.612 2.7249999 72
3.642 -1.83 2.7249999 70
3.2939999 -1.114 2.7309999 69
3.4159999 -1.3200001 2.7279999 73
3.552 -1.534 2.7309999 72
3.6830001 -1.7460001 2.7249999 67
3.3099999 -1.039 2.7320001 70
3.448 -1.245 2.7360001 72
3.5840001 -1.452 2.7309999 74
3.721 -1.661 2.723 68
3.3169999 -0.96200001 2.7279999 61
3.464 -1.166 2.733 71
3.608 -1.369 2.7279999 73
3.7650001 -1.577 2.727 70
2.839 -0.75700003 2.3269999 53
3.483 -1.087 2.734 72
3.642 -1.289 2.733 74
3.8 -1.4910001 2.727 70
2.8410001 -0.69199997 2.322 53
2.849 -0.82099998 2.2249999 17
3.6689999 -1.206 2.734 76
3.835 -1.404 2.7279999 69
2.849 -0.63 2.3239999 53
2.8429999 -0.75099999 2.211 61
3.688 -1.1210001 2.7309999 74
3.868 -1.316 2.7290001 69
2.8429999 -0.56400001 2.3150001 53
2.8369999 -0.68300003 2.197 59
2.8429999 -0.79400003 2.0940001 45
3.8959999 -1.226 2.727 68
2.846 -0.50099999 2.313 54
2.8440001 -0.61799997 2.1949999 61
2.8369999 -0.72399998 2.0780001 64
2.855 -0.82499999 1.985 15
2.8499999 -0.43900001 2.3139999 55
2.845 -0.55299997 2.1900001 66
2.8410001 -0.65700001 2.0710001 61
2.842 -0.75099999 1.9630001 76
2.8469999 -0.375 2.3110001 54
2.8440001 -0.48800001 2.184 60
2.836 -0.588 2.0599999 60
2.8440001 -0.68199998 1.9529999 67
2.845 -0.31299999 2.309 53
2.8469999 -0.42500001 2.1819999 63
2.8369999 -0.52200001 2.052 63
2.842 -0.61199999 1.942 71
2.852 -0.252 2.3139999 55
2.8429999 -0.36000001 2.1760001 61
2.8410001 -0.45699999 2.049 65
2.8469999 -0.54400003 1.936 73
2.852 -0.191 2.316 56
2.836 -0.296 2.168 67
2.8429999 -0.391 2.0450001 64
2.8510001 -0.477 1.931 72
2.846 -0.13 2.3139999 48
2.848 -0.234 2.1760001 66
2.8410001 -0.32499999 2.039 63
2.8469999 -0.40799999 1.9220001 70
3.369 -0.082000002 2.7420001 65
2.845 -0.171 2.1730001 70
2.8410001 -0.25999999 2.0369999 63
2.852 -0.34099999 1.92 70
3.3699999 -0.0099999998 2.7479999 70
2.849 -0.108 2.177 39
2.845 -0.19599999 2.0380001 63
2.8540001 -0.27399999 1.916 63
3.3559999 0.061000001 2.743 71
3.5929999 -0.057999998 2.7479999 73
2.846 -0.131 2.0369999 62
2.8570001 -0.207 1.915 62
3.359 0.132 2.7520001 71
3.5940001 0.02 2.7520001 78
3.8329999 -0.090000004 2.744 68
2.8540001 -0.14 1.911 69
3.348 0.20200001 2.7509999 70
3.5769999 0.097999997 2.744 72
3.8410001 -0.003 2.7509999 75
4.053 -0.104 2.7119999 51
3.3340001 0.273 2.7490001 71
3.5840001 0.177 2.7550001 75
3.836 0.082999997 2.75 74
4.0619998 -0.0089999996 2.7190001 62
3.325 0.34299999 2.7509999 70
3.5710001 0.255 2.753 82
3.832 0.17 2.7520001 74
4.0710001 0.086000003 2.7260001 65
3.312 0.41299999 2.7520001 68
3.559 0.333 2.7520001 72
3.826 0.257 2.753 72
4.0630002 0.18099999 2.724 67
3.2969999 0.48199999 2.7520001 72
3.549 0.41100001 2.7539999 72
3.8139999 0.34400001 2.753 77
4.059 0.27599999 2.7260001 66
3.2839999 0.551 2.7539999 71
3.536 0.48899999 2.7550001 73
3.796 0.42899999 2.7479999 75
4.059 0.37200001 2.733 63
3.267 0.61799997 2.7539999 71
3.52 0.565 2.7539999 72
3.7950001 0.51599997 2.757 74
4.053 0.46799999 2.7379999 57
3.2409999 0.68400002 2.747 72
3.507 0.64200002 2.757 74
3.7750001 0.60100001 2.7539999 76
4.0229998 0.56099999 2.727 65
3.2279999 0.75300002 2.7539999 74
3.4909999 0.71799999 2.7590001 73
3.756 0.68699998 2.753 74
4.0120001 0.65600002 2.7309999 66
3.21 0.81999999 2.7550001 74
3.47 0.79299998 2.7590001 78
3.7479999 0.77399999 2.763 76
4.0159998 0.75400001 2.747 57
3.187 0.88599998 2.7550001 73
3.4530001 0.87 2.763 74
3.7219999 0.85699999 2.7590001 76
4.0050001 0.85100001 2.7550001 70
3.171 0.95300001 2.7609999 75
3.4289999 0.94400001 2.7620001 79
3.6949999 0.94 2.757 75
3.9890001 0.94599998 2.76 71
3.142 1.017 2.757 71
3.404 1.017 2.7609999 80
3.677 1.025 2.7620001 76
3.96 1.039 2.7579999 72
3.1199999 1.082 2.7590001 74
3.382 1.092 2.7650001 78
3.652 1.108 2.7639999 73
3.934 1.132 2.76 72
3.0969999 1.147 2.7609999 73
3.355 1.165 2.7650001 75
3.6229999 1.1900001 2.7650001 70
3.908 1.225 2.7639999 74
3.072 1.211 2.763 74
3.329 1.238 2.7679999 78
1.313 0.465 1.011 5
1.308 0.44400001 0.93300003 62
3.04 1.272 2.76 71
1.3 0.51599997 1.091 72
1.299 0.493 1.0089999 56
1.298 0.47600001 0.935 63
1.255 0.55599999 1.151 30
1.261 0.53299999 1.069 53
1.267 0.51499999 0.99400002 53
1.288 0.50700003 0.93699998 57
1.2410001 0.58099997 1.149 52
1.235 0.55400002 1.058 66
1.237 0.53600001 0.98100001 67
1.251 0.52700001 0.92000002 74
1.223 0.60399997 1.1440001 52
1.219 0.579 1.054 64
1.2359999 0.56900001 0.991 73
1.261 0.56599998 0.93800002 70
1.221 0.63499999 1.155 41
1.209 0.60699999 1.059 59
1.2180001 0.59500003 0.98799998 68
1.23 0.588 0.926 81
1.224 0.66900003 1.171 41
1.205 0.63800001 1.068 65
1.216 0.62900001 0.99900001 67
1.215 0.61699998 0.92699999 81
1.233 0.708 1.1950001 35
1.2 0.67000002 1.077 61
1.201 0.65600002 0.99900001 66
1.2130001 0.653 0.93800002 71
1.2589999 0.75800002 1.235 23
1.201 0.70499998 1.091 57
1.198 0.69099998 1.011 56
1.198 0.68199998 0.94 64
2.7869999 1.757 2.77 74
1.222 0.75400001 1.126 41
1.2029999 0.73100001 1.03 62
1.2079999 0.727 0.96200001 62
2.7449999 1.812 2.7650001 78
1.242 0.80400002 1.161 52
1.2309999 0.787 1.0700001 59
1.211 0.76800001 0.98000002 69
2.7030001 1.865 2.7609999 126
1.244 0.84399998 1.1799999 20
1.227 0.82499999 1.084 59
1.233 0.824 1.015 70
2.654 1.914 2.75 114
2.882 2.05 2.7780001 73
1.223 0.86299998 1.098 58
1.23 0.86500001 1.031 86
2.6170001 1.971 2.7539999 114
2.839 2.1140001 2.7809999 81
1.239 0.917 1.132 24
1.245 0.921 1.063 70
2.5739999 2.0239999 2.753 113
2.7909999 2.175 2.7820001 72
2.983 2.3169999 2.776 72
1.24 0.963 1.079 20
2.5309999 2.076 2.7520001 119
2.7279999 2.223 2.767 87
2.928 2.3840001 2.7780001 72
3.1289999 2.5550001 2.7820001 71
2.4909999 2.132 2.7550001 110
2.6760001 2.28 2.766 115
2.8729999 2.451 2.7809999 71
3.063 2.6259999 2.783 71
2.451 2.187 2.7590001 95
2.642 2.352 2.783 74
2.8150001 2.5139999 2.7820001 74
2.9979999 2.6960001 2.786 70
2.4159999 2.247 2.77 97
2.5880001 2.408 2.783 76
2.756 2.5769999 2.7839999 74
2.9289999 2.763 2.786 68
2.375 2.303 2.7780001 75
2.5380001 2.467 2.786 72
2.6960001 2.6400001 2.786 74
2.8570001 2.8269999 2.786 71
2.3340001 2.359 2.7850001 77
2.4809999 2.52 2.7850001 80
2.6270001 2.6930001 2.7809999 73
2.7850001 2.892 2.7880001 69
2.2850001 2.408 2.7839999 75
2.4230001 2.5699999 2.7820001 84
2.5680001 2.756 2.7880001 73
2.7119999 2.9549999 2.79 70
2.234 2.454 2.7820001 76
2.369 2.6270001 2.7869999 78
2.503 2.813 2.789 75
2.6370001 3.0139999 2.7909999 70
2.188 2.506 2.786 80
2.3110001 2.678 2.7869999 78
2.4319999 2.8640001 2.786 76
2.563 3.075 2.7950001 68
2.138 2.553 2.7869999 75
2.2509999 2.7260001 2.786 76
2.3699999 2.9219999 2.7920001 74
2.483 3.128 2.7939999 70
2.0829999 2.596 2.7839999 76
2.1919999 2.776 2.7869999 79
2.2980001 2.971 2.79 73
2.4059999 3.1849999 2.7969999 69
2.03 2.6400001 2.783 75
2.132 2.825 2.789 71
2.2279999 3.0209999 2.7920001 73
2.3239999 3.234 2.796 68
1.979 2.687 2.786 76
2.0669999 2.868 2.786 70
2.1570001 3.0710001 2.7939999 72
2.244 3.2869999 2.8 68
1.925 2.7320001 2.7880001 73
2.0079999 2.9189999 2.7920001 72
2.085 3.118 2.7950001 71
2.158 3.329 2.7969999 62
1.8710001 2.777 2.79 74
1.942 2.96 2.7909999 77
2.01 3.1600001 2.7939999 72
2.076 3.378 2.8010001 70
1.721 2.6730001 2.6459999 57
1.878 3.003 2.7909999 72
1.937 3.2060001 2.7969999 73
1.976 3.3940001 2.78 69
1.675 2.724 2.6589999 58
1.696 2.849 2.6129999 57
1.848 3.224 2.7780001 74
1.839 3.3399999 2.7049999 66
1.7 2.8989999 2.7909999 78
1.631 2.882 2.6099999 56
1.6569999 3.0510001 2.598 53
1.686 3.244 2.5999999 57
1.641 2.938 2.7909999 78
1.673 3.1140001 2.786 49
1.706 3.3199999 2.796 72
1.609 3.2839999 2.6059999 51
1.5829999 2.9779999 2.7950001 63
1.608 3.158 2.793 73
1.63 3.359 2.799 69
1.531 3.326 2.615 48
1.523 3.016 2.796 75
1.541 3.198 2.7980001 72
1.549 3.3889999 2.7969999 73
1.462 3.3859999 2.6400001 53
1.46 3.049 2.7939999 75
1.471 3.2320001 2.7969999 72
1.4579999 3.3929999 2.776 72
1.3839999 3.427 2.652 57
1.398 3.0829999 2.7939999 76
1.402 3.2679999 2.8 78
1.351 3.355 2.721 67
1.29 3.4289999 2.6340001 55
1.3380001 3.1229999 2.8 77
1.329 3.2980001 2.8 77
1.233 3.277 2.6370001 59
1.197 3.4289999 2.618 54
1.274 3.155 2.8 76
1.257 3.3269999 2.8 79
1.14 3.256 2.6010001 58
1.1059999 3.4300001 2.6040001 55
1.2079999 3.184 2.799 78
1.182 3.349 2.796 43
1.063 3.2739999 2.598 50
1.016 3.4289999 2.5910001 55
1.1440001 3.2160001 2.8 78
1.11 3.381 2.8 82
0.98799998 3.2980001 2.6010001 49
0.92799997 3.431 2.5810001 55
1.0779999 3.247 2.802 78
1.031 3.391 2.789 79
0.92000002 3.3469999 2.6259999 50
0.83899999 3.425 2.5669999 56
1.01 3.2720001 2.8010001 77
0.94300002 3.368 2.7509999 82
0.84600002 3.382 2.6400001 52
0.75199997 3.4189999 2.5550001 55
0.94400001 3.3039999 2.806 79
0.84200001 3.283 2.665 103
0.77100003 3.4089999 2.6500001 53
0.66799998 3.4289999 2.556 56
0.87400001 3.3239999 2.802 77
0.75800002 3.2490001 2.6229999 71
0.69 3.418 2.6459999 52
0.583 3.4230001 2.5469999 55
0.80500001 3.3469999 2.8010001 76
0.68199998 3.2490001 2.609 66
0.61000001 3.425 2.6429999 52
0.49900001 3.4230001 2.5439999 55
0.736 3.3729999 2.8050001 80
0.60900003 3.2539999 2.5999999 60
0.52899998 3.418 2.631 51
0.41600001 3.4219999 2.5420001 55
0.66500002 3.392 2.803 79
0.537 3.2679999 2.6010001 52
0.449 3.421 2.6270001 53
0.33399999 3.424 2.543 55
0.59200001 3.402 2.7950001 75
0.46399999 3.273 2.595 47
0.36899999 3.4170001 2.6199999 53
0.25099999 3.4189999 2.5409999 53
0.514 3.3759999 2.7590001 77
0.39199999 3.2809999 2.5929999 46
0.29100001 3.4230001 2.622 58
0.17 3.425 2.5480001 55
0.428 3.283 2.6700001 75
0.31999999 3.3 2.6010001 47
0.211 3.411 2.6110001 52
0.089000002 3.425 2.553 55
0.352 3.2409999 2.6240001 72
0.248 3.322 2.612 49
0.133 3.4219999 2.6199999 52
0.0070000002 3.4219999 2.5569999 53
0.28299999 3.244 2.6159999 71
0.176 3.3529999 2.632 50
0.054000001 3.4189999 2.619 58
-0.072999999 3.424 2.566 55
0.213 3.2479999 2.6099999 63
0.102 3.3740001 2.645 54
-0.023 3.4219999 2.6240001 60
-0.155 3.4189999 2.572 55
0.14300001 3.2490001 2.6029999 66
0.027000001 3.385 2.652 56
-0.102 3.421 2.628 58
-0.236 3.4200001 2.5829999 55
0.072999999 3.2609999 2.605 61
-0.046999998 3.3889999 2.6530001 57
-0.18000001 3.418 2.631 59
-0.31799999 3.4260001 2.5999999 55
0.0040000002 3.2579999 2.5969999 56
-0.122 3.3959999 2.6589999 57
-0.259 3.4230001 2.641 60
-0.39899999 3.4200001 2.608 56
-0.064999998 3.247 2.5840001 50
-0.198 3.391 2.6570001 58
-0.33700001 3.415 2.6429999 60
-0.48199999 3.4200001 2.6240001 55
-0.13600001 3.263 2.5929999 50
-0.27200001 3.3729999 2.6459999 57
-0.417 3.421 2.658 58
-0.565 3.4219999 2.6429999 56
-0.207 3.263 2.5910001 47
-0.34400001 3.3440001 2.6270001 50
-0.495 3.414 2.664 56
-0.64700001 3.4200001 2.6600001 55
-0.278 3.2650001 2.592 46
-0.41499999 3.3099999 2.6059999 50
-0.56900001 3.3729999 2.645 53
-0.72799999 3.404 2.668 55
-0.34799999 3.2590001 2.5869999 45
-0.486 3.283 2.5910001 48
-0.63300002 3.2939999 2.596 46
-0.78500003 3.289 2.599 44
-0.41999999 3.257 2.5869999 45
-0.55800003 3.2650001 2.585 41
-0.70499998 3.2679999 2.5910001 43
-0.85699999 3.25 2.5910001 50
-0.491 3.2550001 2.5869999 46
-0.63099998 3.2539999 2.586 45
-0.77899998 3.247 2.5910001 49
-0.93599999 3.2390001 2.6059999 56
-0.56400001 3.253 2.5899999 49
-0.70700002 3.256 2.598 54
-0.85699999 3.243 2.6059999 60
-1.0190001 3.237 2.631 66
-0.63599998 3.2479999 2.5910001 52
-0.78100002 3.2449999 2.6010001 59
-0.92900002 3.2149999 2.6029999 69
-1.1619999 3.4119999 2.803 63
-0.71100003 3.2490001 2.598 52
-0.85399997 3.233 2.605 61
-1.0599999 3.3759999 2.756 69
-1.24 3.3770001 2.806 76
-0.78399998 3.244 2.602 57
-0.93099999 3.227 2.6159999 86
-1.154 3.404 2.802 75
-1.313 3.335 2.803 75
-0.861 3.2490001 2.615 55
-1.049 3.3559999 2.737 68
-1.2309999 3.3759999 2.806 77
-1.387 3.2939999 2.8039999 72
-0.93000001 3.22 2.602 66
-1.149 3.405 2.796 69
-1.307 3.3440001 2.8069999 76
-1.4579999 3.2479999 2.8010001 74
-1.005 3.2160001 2.6099999 72
-1.2309999 3.395 2.809 90
-1.38 3.306 2.8039999 77
-1.53 3.2060001 2.803 76
-1.132 3.359 2.7409999 69
-1.306 3.3659999 2.806 77
-1.4529999 3.2709999 2.8050001 73
-1.6 3.1600001 2.803 70
-1.2309999 3.4030001 2.7920001 70
-1.383 3.3410001 2.8099999 76
-1.526 3.234 2.806 75
-1.666 3.108 2.799 73
-1.3150001 3.3989999 2.8069999 77
-1.456 3.306 2.806 75
-1.594 3.188 2.8010001 74
-0.54900002 0.97000003 0.88800001 6
-1.393 3.378 2.8080001 81
-1.529 3.2720001 2.8039999 79
-1.663 3.1459999 2.799 75
-0.55900002 0.93699998 0.87099999 8
-1.469 3.3499999 2.806 79
-1.605 3.2420001 2.8069999 75
-0.53799999 0.96399999 0.86900002 2
-0.58499998 0.93000001 0.88 8
-1.549 3.3310001 2.812 79
-1.677 3.2060001 2.806 74
-0.55400002 0.94199997 0.86199999 8
-0.64300001 0.972 0.93599999 7
-1.623 3.2950001 2.806 75
-0.53799999 0.97500002 0.86400002 1
-0.57999998 0.93599999 0.86900002 9
-0.676 0.972 0.954 52
-1.699 3.2639999 2.8050001 75
-0.55299997 0.95099998 0.85299999 31
-0.62599999 0.96200001 0.90700001 8
-0.70200002 0.96100003 0.96200001 11
-1.779 3.24 2.812 56
-0.57499999 0.93900001 0.85299999 9
-0.667 0.97399998 0.93400002 11
-0.727 0.94800001 0.96799999 70
-0.54799998 0.94800001 0.83200002 33
-0.62 0.96399999 0.88800001 8
-0.69099998 0.963 0.93900001 9
-0.76599997 0.95300001 0.99299997 10
-0.56900001 0.935 0.82999998 8
-0.662 0.98000002 0.91600001 12
-0.72000003 0.95599997 0.94999999 64
-0.79900002 0.94800001 1.01 52
-0.63599998 0.99400002 0.89300001 9
-0.67699999 0.95499998 0.90700001 11
-0.74900001 0.949 0.96100003 13
-0.83600003 0.94700003 1.033 3
-0.66799998 0.99400002 0.90499997 17
-0.70899999 0.954 0.92000002 8
-0.78200001 0.94599998 0.97600001 48
-2.316 2.5050001 2.7980001 75
-0.68000001 0.96499997 0.88999999 18
-0.741 0.95099998 0.93300003 57
-0.824 0.95200002 1.003 5
-2.359 2.438 2.79 73
-0.69800001 0.94400001 0.88300002 18
-0.76700002 0.94 0.93900001 11
-2.352 2.595 2.7939999 72
-2.4100001 2.3789999 2.7920001 73
-0.72500002 0.93599999 0.889 14
-0.80500001 0.94199997 0.958 37
-2.4059999 2.5369999 2.793 72
-2.4560001 2.316 2.7920001 71
-0.76800001 0.94599998 0.91399997 17
0 0 0 50
-2.461 2.48 2.7939999 72
-2.497 2.2490001 2.7869999 73
-0.796 0.93699998 0.92000002 14
-2.4719999 2.642 2.796 71
-2.51 2.418 2.7909999 72
-2.5420001 2.187 2.789 74
-0.838 0.94199997 0.94199997 9
-2.53 2.5840001 2.7939999 74
0 0 0 50
-0.89200002 0.73299998 0.963 4
-2.5539999 2.7449999 2.7980001 74
-2.5910001 2.53 2.7969999 75
-2.609 2.2950001 2.79 73
-0.84399998 0.662 0.89700001 32
-2.625 2.697 2.8039999 75
-2.645 2.4679999 2.7939999 70
-2.6589999 2.234 2.7920001 73
-0.77999997 0.583 0.81699997 5
0 0 0 50
-2.6989999 2.4059999 2.7920001 74
0 0 0 0
-0.80900002 0.57700002 0.83600003 6
-2.7460001 2.575 2.7950001 77
-2.757 2.349 2.796 73
-0.76700002 0.58700001 0.778 5
0 0 0 50
-2.813 2.5209999 2.8 73
0 0 0 0
-0.78600001 0.574 0.78600001 5
-0.84899998 0.55000001 0.85600001 7
0 0 0 0
-0.73400003 0.56999999 0.71700001 7
-0.84299999 0.58700001 0.82999998 8
-0.80400002 0.495 0.801 6
0 0 0 50
-0.74900001 0.55500001 0.71899998 4
-0.86900002 0.57700002 0.84299999 11
-0.79500002 0.465 0.78299999 7
-0.76499999 0.597 0.71600002 4
-0.83899999 0.59299999 0.79299998 9
-0.80699998 0.50999999 0.77399999 6
-0.77999997 0.433 0.76099998 6
-0.75 0.55699998 0.68800002 6
-0.84399998 0.56699997 0.78399998 5
-0.79000002 0.47400001 0.74699998 7
-0.77899998 0.41 0.75300002 9
-0.829 0.58700001 0.74800003 6
-0.77899998 0.49900001 0.71399999 7
-0.78899997 0.44999999 0.73799998 7
-0.77600002 0.38699999 0.74299997 10
-0.76099998 0.51300001 0.67500001 8
-0.78299999 0.47600001 0.70700002 6
-0.77100003 0.417 0.713 5
-0.78600001 0.37 0.74699998 10
-0.759 0.48699999 0.662 8
-0.78299999 0.45199999 0.69800001 7
-0.76800001 0.39300001 0.70200002 7
-0.801 0.35499999 0.755 9
-0.76200002 0.465 0.65499997 7
-0.75700003 0.41499999 0.66600001 4
-0.78500003 0.38 0.71100003 11
-0.80400002 0.336 0.75300002 10
-0.74900001 0.433 0.634 7
-0.75800002 0.39300001 0.65899998 8
-0.787 0.36000001 0.70599997 9
-0.80599999 0.31600001 0.75 12
0 0 0 50
-0.78299999 0.384 0.67299998 12
-0.79699999 0.34299999 0.70899999 9
-0.81099999 0.29699999 0.74900001 12
-0.78799999 0.40799999 0.64899999 13
-0.78899997 0.36500001 0.671 10
-0.80599999 0.32499999 0.71100003 8
-0.824 0.28099999 0.75800002 11
-0.79000002 0.38600001 0.64200002 12
-0.79299998 0.345 0.667 10
-0.81300002 0.30700001 0.71200001 9
-0.838 0.266 0.76700002 9
-0.79299998 0.36500001 0.63700002 11
-0.79900002 0.32600001 0.66600001 10
-0.82200003 0.28999999 0.71499997 8
-0.87099999 0.255 0.79299998 10
-0.796 0.345 0.63200003 11
-0.80900002 0.30899999 0.66900003 10
-0.82300001 0.26899999 0.71100003 10
-0.88300002 0.23800001 0.80199999 11
-0.79900002 0.324 0.62800002 12
-0.80699998 0.287 0.662 10
-0.84100002 0.255 0.722 10
-0.90399998 0.222 0.81800002 10
-0.80500001 0.30500001 0.62599999 11
-0.82300001 0.27200001 0.67000002 10
-0.85500002 0.23800001 0.73000002 7
-0.93800002 0.20900001 0.84600002 8
-0.80900002 0.285 0.62400001 11
-0.833 0.25400001 0.67299998 10
-0.875 0.223 0.74400002 6
-0.95200002 0.19 0.85699999 11
-0.82700002 0.27000001 0.63200003 11
-0.84799999 0.23800001 0.68099999 10
-0.921 0.213 0.77999997 7
-0.93000001 0.16500001 0.83499998 3
-0.833 0.25099999 0.63200003 11
-0.86799997 0.222 0.69300002 8
-0.95599997 0.198 0.80699998 11
-0.90399998 0.14 0.81099999 5
-0.84799999 0.234 0.639 12
-0.89300001 0.207 0.70899999 7
-0.95599997 0.176 0.80500001 6
-0.90600002 0.12 0.81199998 5
-0.866 0.21699999 0.648 10
-0.93000001 0.193 0.73500001 6
-0.89600003 0.145 0.75199997 5
-0.92500001 0.102 0.829 3
-0.89200002 0.20200001 0.66399997 8
-0.917 0.169 0.722 3
-0.898 0.124 0.75199997 5
-3.095 0.27500001 2.7709999 13
-0.88 0.177 0.65100002 7
-0.87900001 0.141 0.69 5
-0.91299999 0.106 0.76300001 2
-3.092 0.208 2.7690001 70
-0.87300003 0.155 0.64300001 8
-0.89399999 0.123 0.699 5
-3.3139999 0.31099999 2.7679999 9
-3.089 0.141 2.7690001 71
-0.87900001 0.13500001 0.64499998 7
-0.91799998 0.105 0.71600002 1
-3.312 0.237 2.7650001 77
-3.0899999 0.074000001 2.773 75
-0.889 0.115 0.64999998 4
-3.5539999 0.324 2.7690001 7
-3.316 0.163 2.7679999 78
-3.082 0.0080000004 2.77 73
-3.796 0.40200001 2.7679999 17
-3.5539999 0.242 2.7650001 72
-3.306 0.089000002 2.76 74
-3.0769999 -0.057999998 2.7709999 77
-3.8010001 0.31200001 2.7650001 72
-3.55 0.16 2.76 81
-3.3010001 0.015 2.7590001 84
-3.069 -0.123 2.77 74
-3.803 0.222 2.7620001 75
-3.5539999 0.079000004 2.763 84
-3.2980001 -0.057 2.7590001 82
-3.0539999 -0.189 2.7650001 74
-3.8099999 0.133 2.7650001 76
-3.549 -0.001 2.76 87
-3.2909999 -0.12899999 2.7590001 82
-3.049 -0.25400001 2.77 75
-3.8099999 0.043000001 2.763 77
-3.5469999 -0.082000002 2.7620001 87
-3.283 -0.20200001 2.7590001 79
-3.0339999 -0.31799999 2.766 75
0 0 0 50
-3.5420001 -0.163 2.7620001 90
-3.279 -0.27500001 2.7620001 83
-3.0190001 -0.382 2.763 74
-3.8050001 -0.13500001 2.763 77
-3.53 -0.244 2.7579999 88
-3.2650001 -0.347 2.76 81
-3.01 -0.44600001 2.7679999 84
-3.7920001 -0.22400001 2.7579999 73
-3.516 -0.324 2.7550001 84
-3.253 -0.41800001 2.76 82
-2.9590001 -0.50300002 2.734 106
-3.7750001 -0.31299999 2.7520001 76
-3.5090001 -0.405 2.7590001 92
-3.234 -0.48899999 2.756 72
-2.9449999 -0.565 2.7360001 122
-3.766 -0.40200001 2.753 75
-3.4920001 -0.484 2.7550001 88
-3.2179999 -0.56 2.7550001 73
-2.934 -0.62699997 2.7409999 131
-3.7520001 -0.491 2.7520001 74
-3.474 -0.56300002 2.753 86
-3.2030001 -0.63 2.757 74
-2.9119999 -0.68800002 2.7379999 123
-3.7360001 -0.579 2.7520001 71
-3.4590001 -0.64200002 2.7550001 86
-3.178 -0.69800001 2.75 76
-2.891 -0.74800003 2.7360001 125
-3.727 -0.66799998 2.7579999 72
-3.437 -0.72000003 2.7520001 91
-3.1530001 -0.76599997 2.747 83
-2.8710001 -0.80800003 2.7360001 118
-3.6960001 -0.75300002 2.75 76
-3.414 -0.79699999 2.7509999 84
-3.1340001 -0.83499998 2.7479999 86
-2.849 -0.866 2.7349999 134
-3.6719999 -0.83999997 2.7479999 75
-3.3940001 -0.875 2.7520001 85
-3.1110001 -0.903 2.7479999 95
0 0 0 50
-3.6489999 -0.926 2.7490001 74
-3.3670001 -0.95099998 2.75 87
-3.0769999 -0.96700001 2.74 106
-2.8080001 -0.98500001 2.74 114
-3.6159999 -1.0089999 2.744 76
-3.3399999 -1.027 2.75 85
-3.0439999 -1.031 2.7320001 129
-2.7869999 -1.044 2.7420001 117
-3.5929999 -1.095 2.7490001 79
-3.309 -1.101 2.7479999 91
-3.0079999 -1.0930001 2.724 122
-2.7620001 -1.101 2.7420001 107
-3.5610001 -1.179 2.7479999 76
-3.2850001 -1.177 2.7520001 80
-2.9809999 -1.158 2.7249999 117
-2.7449999 -1.161 2.7520001 112
-3.5239999 -1.26 2.7449999 77
-3.2409999 -1.2460001 2.743 91
-2.9489999 -1.221 2.723 132
-2.72 -1.2180001 2.7539999 101
-3.48 -1.339 2.7390001 75
-3.2119999 -1.321 2.747 89
-2.9170001 -1.284 2.7219999 129
-2.6900001 -1.273 2.753 95
-3.444 -1.42 2.74 75
-3.1730001 -1.391 2.743 94
-2.8840001 -1.346 2.721 112
-2.6619999 -1.329 2.7539999 95
-3.4059999 -1.5 2.7420001 75
-3.1289999 -1.457 2.737 90
-2.855 -1.409 2.724 115
-2.6329999 -1.3839999 2.7550001 97
-3.368 -1.58 2.7449999 70
-3.0810001 -1.522 2.7279999 120
-2.8210001 -1.471 2.7249999 122
-2.598 -1.436 2.7520001 98
-3.3169999 -1.653 2.7390001 76
0 0 0 50
-2.783 -1.529 2.723 107
-2.5669999 -1.489 2.753 92
-3.2720001 -1.73 2.7390001 74
-2.9849999 -1.649 2.7149999 126
-2.756 -1.594 2.733 100
-2.5339999 -1.541 2.753 96
-3.2160001 -1.799 2.7320001 74
-2.9389999 -1.7130001 2.7119999 104
-2.7260001 -1.658 2.7409999 96
-2.494 -1.5880001 2.7460001 77
-3.165 -1.872 2.7320001 74
-2.921 -1.793 2.7360001 96
-2.6849999 -1.715 2.74 72
-2.4660001 -1.6440001 2.7539999 89
-3.1129999 -1.942 2.7309999 74
-2.872 -1.8559999 2.734 89
-2.6440001 -1.771 2.74 77
-2.4170001 -1.6849999 2.7390001 88
-3.0550001 -2.0079999 2.7260001 75
-2.8310001 -1.9220001 2.74 91
-2.5999999 -1.826 2.7379999 79
-2.385 -1.737 2.7449999 83
-3.007 -2.0810001 2.733 73
-2.779 -1.9809999 2.737 86
-2.553 -1.878 2.7349999 76
-2.3440001 -1.783 2.7409999 89
-2.947 -2.145 2.7290001 73
-2.724 -2.0380001 2.733 81
-2.5150001 -1.9349999 2.7409999 79
-2.3050001 -1.83 2.7390001 89
-2.885 -2.207 2.7249999 75
-2.6760001 -2.099 2.7360001 84
-2.4660001 -1.985 2.7360001 78
0 0 0 50
-2.826 -2.2709999 2.7260001 74
-2.622 -2.1559999 2.7349999 91
-2.4159999 -2.0339999 2.7320001 78
-2.2260001 -1.923 2.7390001 94
-2.763 -2.3310001 2.724 75
-2.563 -2.2079999 2.73 89
-2.3699999 -2.085 2.734 78
-2.152 -1.938 2.698 132
-2.694 -2.385 2.7190001 76
-2.51 -2.2639999 2.733 91
-2.322 -2.135 2.734 82
-2.0320001 -1.9069999 2.596 51
-2.631 -2.444 2.72 75
-2.4460001 -2.3099999 2.7249999 97
-2.2690001 -2.1800001 2.73 80
-1.949 -1.9069999 2.54 53
-2.569 -2.5039999 2.724 78
-2.3870001 -2.3610001 2.724 92
-2.221 -2.2290001 2.733 85
-1.972 -2.01 2.6229999 105
-2.497 -2.5510001 2.717 75
-2.329 -2.4119999 2.7249999 94
-2.152 -2.256 2.71 63
-2.0120001 -2.1389999 2.7349999 92
-2.4319999 -2.608 2.7219999 75
-2.27 -2.461 2.7260001 86
-1.954 -2.1400001 2.5209999 50
-1.97 -2.1830001 2.7390001 92
-2.365 -2.6600001 2.724 81
-2.2079999 -2.506 2.724 105
-1.97 -2.2550001 2.6070001 150
-1.9220001 -2.22 2.7349999 93
-2.2869999 -2.7 2.7149999 75
-1.9960001 -2.3729999 2.5339999 56
-2.007 -2.402 2.7279999 76
-1.877 -2.2609999 2.7360001 90
-2.217 -2.747 2.7160001 76
-1.946 -2.424 2.5450001 95
-1.954 -2.444 2.73 63
-1.83 -2.299 2.7360001 90
-2.039 -2.6530001 2.582 60
-2.0179999 -2.635 2.723 98
-1.898 -2.483 2.7290001 76
-1.783 -2.3380001 2.737 89
