# .PCD v0.7 - Point Cloud Data file format
VERSION 0.7
FIELDS x y z intensity
SIZE 4 4 4 4
TYPE F F F F
COUNT 1 1 1 1
WIDTH 1705
HEIGHT 1
VIEWPOINT 0 0 0 1 0 0 0
POINTS 1705
DATA ascii
-3.9960001 -2.0929999 1.74 80
-3.9890001 -2.154 1.8890001 67
-3.9590001 -2.2049999 2.0339999 71
-3.9890001 -2.148 1.618 80
-3.984 -2.207 1.7589999 71
-4.039 -2.3 1.9400001 65
-4.0370002 -2.362 2.1029999 64
-4.0450001 -2.306 1.665 69
-4.0469999 -2.3670001 1.8150001 65
-4.0450001 -2.425 1.972 65
-4.0370002 -2.4809999 2.1340001 63
-4.0479999 -2.4400001 1.694 66
-4.0500002 -2.4979999 1.846 65
-4.0380001 -2.5450001 1.999 63
-4.039 -2.6029999 2.1670001 62
-4.0450001 -2.5739999 1.723 64
-4.046 -2.6270001 1.875 64
-4.0370002 -2.6730001 2.0320001 62
-4.0450001 -2.7309999 2.2049999 61
-4.046 -2.7149999 1.7539999 65
-4.039 -2.76 1.905 65
-4.04 -2.8080001 2.0680001 63
-4.0539999 -2.8670001 2.247 70
-3.325 -2.3510001 1.469 43
-3.276 -2.352 1.573 37
-3.9530001 -2.881 2.0599999 46
-3.9070001 -2.8900001 2.2019999 33
-3.1619999 -2.352 1.425 36
-3.1300001 -2.3610001 1.533 36
-3.766 -2.8759999 1.999 47
-3.7260001 -2.882 2.138 31
-3.0439999 -2.381 1.401 48
-3.04 -2.4059999 1.5190001 45
-3.6029999 -2.881 1.949 47
-3.5650001 -2.881 2.0829999 44
-3.027 -2.4890001 1.425 19
-3.01 -2.4979999 1.536 26
-2.927 -2.45 1.6160001 47
-3.4070001 -2.8759999 2.029 32
-3.046 -2.631 1.467 20
-2.993 -2.605 1.562 15
-2.799 -2.4519999 1.5779999 53
-2.7909999 -2.461 1.696 39
-3.05 -2.766 1.5039999 20
-2.921 -2.665 1.559 12
-2.707 -2.4809999 1.5599999 24
-2.921 -2.688 1.811 34
-2.9909999 -2.848 1.513 20
-2.858 -2.7320001 1.563 11
-2.6129999 -2.5050001 1.541 16
-2.642 -2.539 1.674 3
-2.8510001 -2.849 1.4809999 19
-2.783 -2.7880001 1.561 12
-2.5799999 -2.5869999 1.557 12
-2.5320001 -2.539 1.64 81
-2.592 -2.72 1.385 20
-2.701 -2.835 1.5549999 16
-2.5220001 -2.645 1.561 12
-2.3959999 -2.5090001 1.589 36
-2.313 -2.5480001 1.272 10
-2.4159999 -2.658 1.4299999 19
-2.2650001 -2.484 1.438 14
-2.253 -2.4630001 1.53 21
-2.148 -2.4849999 1.2180001 12
-2.1559999 -2.4849999 1.313 13
-2.1719999 -2.4920001 1.4170001 13
-2.178 -2.4849999 1.517 14
-2.164 -2.6300001 1.267 6
-2.161 -2.6110001 1.355 5
-2.161 -2.5940001 1.449 7
-2.1170001 -2.523 1.513 8
-2.1129999 -2.698 1.279 3
-2.0810001 -2.6389999 1.348 5
-2.154 -2.7060001 1.487 4
-2.1210001 -2.641 1.558 3
-2.052 -2.7550001 1.286 2
-1.937 -2.5780001 1.296 5
-2.1619999 -2.845 1.539 8
-2.072 -2.6960001 1.5650001 2
-1.975 -2.7909999 1.284 2
-1.854 -2.5899999 1.284 6
-2.0769999 -2.865 1.527 8
-2.006 -2.73 1.561 2
-1.887 -2.809 1.275 4
-1.798 -2.6389999 1.29 6
-1.97 -2.849 1.497 8
-1.9450001 -2.77 1.561 2
-1.802 -2.826 1.267 4
-1.7180001 -2.6530001 1.28 7
-1.876 -2.846 1.475 9
-1.885 -2.8099999 1.561 3
-1.484 -2.457 1.089 17
-1.647 -2.678 1.277 5
-1.781 -2.8399999 1.454 8
-1.813 -2.832 1.553 4
-1.619 -2.8340001 1.243 12
-1.443 -2.473 1.165 24
-1.47 -2.4630001 1.2460001 22
-1.742 -2.8529999 1.545 8
-1.3430001 -2.487 1.08 25
-1.515 -2.7420001 1.279 6
-1.443 -2.546 1.273 10
-1.439 -2.477 1.325 24
-1.286 -2.5280001 1.0880001 10
-1.284 -2.4579999 1.135 21
-1.337 -2.487 1.23 23
-1.58 -2.8599999 1.512 13
-1.284 -2.681 1.145 11
-1.28 -2.595 1.187 14
-1.285 -2.5239999 1.2359999 10
-1.293 -2.4630001 1.288 23
-1.285 -2.858 1.211 51
-1.286 -2.7690001 1.256 11
-1.283 -2.6659999 1.294 11
-1.288 -2.586 1.339 11
-1.2029999 -2.8570001 1.2029999 73
-1.25 -2.8629999 1.289 75
-1.29 -2.8410001 1.3660001 22
-1.286 -2.7279999 1.398 11
-1.124 -2.8610001 1.198 74
-1.174 -2.868 1.2819999 75
-1.223 -2.862 1.365 64
-1.275 -2.862 1.454 67
-1.044 -2.859 1.191 69
-1.096 -2.8659999 1.273 72
-1.145 -2.8570001 1.352 64
-1.206 -2.8710001 1.4450001 62
-0.96799999 -2.8599999 1.186 76
-1.02 -2.865 1.266 74
-1.073 -2.862 1.345 68
-1.132 -2.869 1.432 66
-0.88999999 -2.8570001 1.1799999 70
-0.94599998 -2.8659999 1.2589999 75
-1 -2.8599999 1.335 70
-1.059 -2.8629999 1.418 68
-0.81800002 -2.8659999 1.1799999 75
-0.87099999 -2.859 1.251 76
-0.92900002 -2.8599999 1.327 65
-0.99199998 -2.8710001 1.411 74
-0.74400002 -2.8629999 1.176 73
-0.79900002 -2.859 1.2460001 73
-0.86000001 -2.8640001 1.322 64
-0.921 -2.8629999 1.397 71
-0.67000002 -2.858 1.1720001 75
-0.73000002 -2.865 1.244 72
-0.79000002 -2.8599999 1.314 70
-0.852 -2.8599999 1.387 68
-0.597 -2.8559999 1.17 78
-0.65899998 -2.8640001 1.2410001 76
-0.72299999 -2.8670001 1.311 72
-0.787 -2.8670001 1.382 74
-0.52700001 -2.8559999 1.17 73
-0.58899999 -2.8599999 1.2359999 73
-0.65499997 -2.865 1.3049999 70
-0.71899998 -2.862 1.372 69
-0.442 -2.7690001 1.1339999 150
-0.51999998 -2.862 1.235 71
-0.58700001 -2.862 1.299 73
-0.65499997 -2.8659999 1.368 71
-0.37099999 -2.747 1.126 100
-0.43700001 -2.767 1.193 150
-0.51899999 -2.8559999 1.293 73
-0.58899999 -2.8610001 1.359 70
-0.31400001 -2.8310001 1.1619999 135
-0.37599999 -2.796 1.205 119
-0.45300001 -2.852 1.288 90
-0.52399999 -2.862 1.354 73
-0.248 -2.852 1.173 39
-0.315 -2.832 1.221 108
-0.37799999 -2.7850001 1.256 150
-0.46000001 -2.858 1.347 73
-0.18000001 -2.8629999 1.181 76
-0.248 -2.822 1.217 33
-0.322 -2.8440001 1.281 87
-0.389 -2.8 1.316 150
-0.112 -2.8610001 1.184 80
-0.184 -2.8559999 1.233 71
-0.25 -2.76 1.2410001 22
-0.33399999 -2.8629999 1.342 71
-0.018999999 -1.249 0.51899999 13
-0.050999999 -1.242 0.537 6
-0.19400001 -2.8469999 1.28 19
-0.244 -2.585 1.209 15
0.023 -2.8610001 1.194 17
-0.022 -1.2029999 0.52100003 6
-0.054000001 -1.194 0.537 41
-0.20100001 -2.7650001 1.29 9
0.037999999 -1.2 0.50300002 10
0.0049999999 -1.256 0.546 4
-0.028000001 -1.206 0.54299998 1
-0.061000001 -1.2 0.55900002 33
0.064000003 -1.16 0.48899999 11
0.033 -1.209 0.52700001 0
-0.001 -1.25 0.56300002 5
-0.035 -1.239 0.57700002 4
0.090000004 -1.1440001 0.48500001 11
0 0 0 0
0.059999999 -2.842 1.283 22
-0.0089999996 -1.2460001 0.57999998 8
0.116 -1.126 0.48100001 11
0.083999999 -1.143 0.50300002 9
0.050999999 -1.179 0.53299999 47
0.039999999 -2.77 1.289 1
0.139 -1.1 0.47299999 12
0.109 -1.13 0.49900001 10
0.075000003 -1.1390001 0.51700002 9
0.044 -1.211 0.56400001 46
0.16500001 -1.092 0.47299999 14
0.132 -1.104 0.491 8
0.1 -1.132 0.51499999 9
0.066 -1.146 0.53399998 9
0.192 -1.098 0.47999999 11
0.156 -1.0930001 0.48899999 11
0.123 -1.108 0.50599998 9
0.090999998 -1.137 0.53100002 10
0.22499999 -1.131 0.49900001 10
0.18099999 -1.089 0.49000001 9
0.146 -1.0930001 0.50099999 10
0.114 -1.119 0.523 11
0.259 -1.155 0.51499999 11
0.213 -1.12 0.50800002 8
0.171 -1.092 0.50300002 10
0.13699999 -1.103 0.51599997 11
0.28400001 -1.14 0.51300001 9
0.245 -1.142 0.52200001 9
0.20100001 -1.1160001 0.51700002 10
0.16 -1.086 0.50999999 13
0.31900001 -1.164 0.52999997 11
0.27000001 -1.135 0.523 10
0.23 -1.131 0.52700001 10
0.18799999 -1.107 0.52200001 10
0.35100001 -1.1720001 0.54000002 10
0.30000001 -1.145 0.53200001 8
0.25600001 -1.131 0.52999997 10
0.215 -1.118 0.52899998 11
0.39899999 -1.23 0.57300001 9
0.33500001 -1.166 0.54699999 10
0.28200001 -1.127 0.53200001 10
0.244 -1.133 0.53799999 11
0.47799999 -1.362 0.64300001 7
0.36300001 -1.164 0.551 10
0.315 -1.149 0.546 10
0.26899999 -1.1289999 0.53899997 13
1.0140001 -2.6889999 1.286 7
0.44 -1.303 0.62400001 12
0.34400001 -1.151 0.551 11
0.29800001 -1.137 0.546 11
1.073 -2.655 1.288 8
0.491 -1.354 0.65499997 1
0.37599999 -1.163 0.56199998 10
0.33000001 -1.155 0.55699998 12
1.097 -2.543 1.251 15
1.0140001 -2.605 1.276 9
0.46700001 -1.339 0.653 10
0.35800001 -1.156 0.56099999 13
1.171 -2.549 1.273 18
1.057 -2.543 1.261 18
0.95300001 -2.549 1.255 15
0.41999999 -1.255 0.61299998 11
1.3890001 -2.8499999 1.4450001 71
1.14 -2.576 1.293 25
1.0140001 -2.5380001 1.262 18
0.48800001 -1.357 0.66799998 4
1.362 -2.638 1.36 9
1.277 -2.717 1.383 150
1.102 -2.586 1.3 26
0.97899997 -2.543 1.263 19
1.545 -2.8299999 1.484 43
1.418 -2.846 1.469 73
1.192 -2.631 1.337 113
1.053 -2.5639999 1.284 20
1.603 -2.78 1.484 39
1.41 -2.677 1.402 26
1.3710001 -2.8540001 1.4680001 73
1.152 -2.6340001 1.331 98
1.715 -2.8239999 1.535 73
1.585 -2.8499999 1.516 73
1.441 -2.8329999 1.475 80
1.253 -2.6989999 1.378 150
1.8150001 -2.839 1.572 54
1.5369999 -2.6199999 1.416 32
1.511 -2.813 1.484 43
1.405 -2.859 1.474 74
1.897 -2.8210001 1.594 40
1.74 -2.819 1.549 138
1.609 -2.8399999 1.5190001 82
1.387 -2.6700001 1.392 16
1.955 -2.77 1.596 25
1.84 -2.8340001 1.584 56
1.523 -2.553 1.385 40
1.558 -2.8410001 1.498 97
2.0179999 -2.723 1.603 26
1.9119999 -2.8039999 1.596 33
1.78 -2.8369999 1.563 54
1.608 -2.7809999 1.485 34
2.062 -2.654 1.597 27
1.966 -2.747 1.5930001 26
1.867 -2.832 1.584 51
1.717 -2.823 1.527 63
1.266 -1.5549999 0.95700002 20
2.0309999 -2.707 1.6 27
1.942 -2.8050001 1.596 33
1.822 -2.849 1.562 61
1.29 -1.513 0.95300001 70
2.0829999 -2.648 1.598 26
2.0009999 -2.7550001 1.595 26
1.9 -2.8269999 1.573 54
1.3150001 -1.473 0.95099998 84
1.275 -1.5470001 0.954 69
2.063 -2.71 1.597 27
1.987 -2.8180001 1.592 40
1.3430001 -1.437 0.95099998 95
1.2970001 -1.5039999 0.94800001 76
1.263 -1.584 0.95099998 8
2.053 -2.776 1.594 27
1.358 -1.3890001 0.94400001 61
1.329 -1.473 0.949 79
1.276 -1.528 0.93599999 72
2.1229999 -2.7390001 1.599 26
1.3430001 -1.312 0.91600001 61
1.348 -1.428 0.94199997 89
1.304 -1.4910001 0.93199998 77
1.271 -1.5650001 0.93000001 79
1.354 -1.265 0.90799999 77
1.354 -1.3710001 0.92699999 52
1.3380001 -1.462 0.93400002 82
1.288 -1.515 0.917 77
1.3710001 -1.224 0.90499997 91
1.346 -1.302 0.90399998 63
1.347 -1.4069999 0.91900003 98
1.309 -1.471 0.90700001 81
1.395 -1.191 0.90700001 79
1.35 -1.249 0.88999999 83
1.3430001 -1.34 0.89600003 56
1.346 -1.444 0.90899998 106
1.442 -1.175 0.92299998 69
1.376 -1.216 0.89099997 84
1.344 -1.2819999 0.87800002 74
1.359 -1.393 0.89700001 67
1.4960001 -1.165 0.94499999 72
1.405 -1.187 0.89499998 88
1.3609999 -1.2410001 0.87199998 78
1.341 -1.313 0.86400002 68
1.5420001 -1.146 0.96100003 67
1.4450001 -1.165 0.90499997 68
1.387 -1.2079999 0.87199998 87
1.347 -1.261 0.84899998 83
1.587 -1.125 0.97799999 80
1.505 -1.16 0.92900002 67
1.418 -1.1799999 0.87599999 88
1.37 -1.225 0.84600002 101
1.643 -1.1109999 1.001 83
1.552 -1.141 0.94499999 71
1.4529999 -1.155 0.88200003 77
1.397 -1.192 0.84500003 105
1.684 -1.084 1.015 70
1.609 -1.127 0.96600002 95
1.526 -1.156 0.91100001 74
1.432 -1.166 0.84899998 96
1.7130001 -1.05 1.022 11
1.652 -1.104 0.98000002 71
1.567 -1.132 0.921 83
1.4809999 -1.151 0.86199999 82
4.5929999 -2.6760001 2.7149999 68
1.689 -1.074 0.98900002 66
1.623 -1.118 0.94 88
1.539 -1.14 0.88099998 80
4.6329999 -2.5639999 2.7149999 62
1.7130001 -1.036 0.99199998 12
1.665 -1.092 0.95099998 68
1.612 -1.138 0.90700001 107
4.6729999 -2.4530001 2.7160001 64
4.7379999 -2.7249999 2.7149999 67
1.6950001 -1.058 0.95599997 66
1.632 -1.097 0.90399998 84
4.7119999 -2.342 2.7179999 69
4.7839999 -2.6099999 2.714 67
1.719 -1.02 0.95700002 4
1.675 -1.0700001 0.91299999 81
4.7470002 -2.23 2.7190001 65
4.8249998 -2.494 2.711 67
4.9239998 -2.77 2.7079999 70
1.705 -1.035 0.91600001 75
4.7810001 -2.118 2.7219999 67
4.8769999 -2.3840001 2.717 67
4.9759998 -2.652 2.707 65
4.763 -2.7420001 2.5250001 38
4.8179998 -2.0090001 2.727 67
4.9219999 -2.2709999 2.72 67
5.0380001 -2.54 2.711 69
5.1279998 -2.796 2.6830001 47
4.835 -1.892 2.7219999 65
4.9549999 -2.1530001 2.717 67
5.0840001 -2.4200001 2.7090001 67
5.2350001 -2.7 2.7049999 48
4.8649998 -1.783 2.7260001 65
4.9990001 -2.0409999 2.7219999 69
5.1339998 -2.302 2.71 67
5.2979999 -2.579 2.7060001 47
4.8850002 -1.67 2.7249999 67
5.0339999 -1.926 2.723 71
5.1820002 -2.184 2.7119999 64
5.3670001 -2.4590001 2.711 48
4.9109998 -1.5599999 2.7290001 70
5.0570002 -1.806 2.72 67
5.2290001 -2.0650001 2.714 67
5.4180002 -2.332 2.7090001 49
2.8329999 -0.83200002 1.569 3
5.0879998 -1.689 2.7219999 68
5.2680001 -1.942 2.714 68
5.4689999 -2.204 2.7079999 48
2.845 -0.76899999 1.572 69
5.119 -1.574 2.7249999 68
5.3070002 -1.8200001 2.7149999 67
5.5289998 -2.0810001 2.7130001 49
2.845 -0.70200002 1.568 68
2.8440001 -0.80599999 1.507 32
5.348 -1.699 2.7190001 68
5.5749998 -1.95 2.7130001 48
2.8440001 -0.63700002 1.564 73
2.845 -0.73799998 1.502 75
2.8469999 -0.833 1.439 1
5.6199999 -1.821 2.714 48
2.848 -0.57300001 1.564 76
2.8469999 -0.67199999 1.498 73
2.8410001 -0.76200002 1.428 73
5.6700001 -1.693 2.7179999 48
2.846 -0.509 1.561 73
2.8399999 -0.60299999 1.49 63
2.8440001 -0.69400001 1.423 73
2.846 -0.77700001 1.355 75
2.8410001 -0.44499999 1.557 66
2.8440001 -0.53899997 1.489 67
2.846 -0.625 1.418 75
2.8369999 -0.704 1.3430001 80
2.8440001 -0.382 1.559 70
2.846 -0.47299999 1.487 71
2.8440001 -0.55699998 1.4119999 73
2.849 -0.63499999 1.342 79
2.848 -0.31999999 1.562 66
2.8429999 -0.40799999 1.484 73
2.852 -0.491 1.4119999 76
2.848 -0.56599998 1.335 82
2.848 -0.25799999 1.563 69
2.8469999 -0.34400001 1.484 79
2.8469999 -0.42300001 1.406 76
2.848 -0.49700001 1.329 79
2.8570001 -0.198 1.569 68
2.8469999 -0.28099999 1.483 69
2.846 -0.35699999 1.403 79
2.848 -0.428 1.325 79
2.8529999 -0.13500001 1.569 69
2.846 -0.21699999 1.482 69
2.852 -0.292 1.403 78
2.852 -0.36000001 1.323 83
2.8859999 -0.075000003 1.59 3
2.849 -0.154 1.485 72
2.845 -0.226 1.398 75
2.8499999 -0.292 1.318 84
4.9699998 -0.022 2.7449999 67
2.852 -0.090999998 1.488 27
2.849 -0.161 1.4 75
2.8540001 -0.22400001 1.319 86
4.9640002 0.083999999 2.7490001 68
5.2579999 -0.048999999 2.747 66
2.859 -0.094999999 1.405 38
2.852 -0.156 1.316 80
4.947 0.19 2.7490001 69
5.2540002 0.066 2.75 70
5.5749998 -0.057999998 2.7420001 66
2.865 -0.089000002 1.321 25
4.9359999 0.29499999 2.7520001 70
5.243 0.18099999 2.75 68
5.573 0.068000004 2.744 66
5.9310002 -0.046999998 2.7349999 49
4.9070001 0.398 2.7449999 71
5.2329998 0.29699999 2.753 69
5.5710001 0.19499999 2.747 67
5.9359999 0.093999997 2.7390001 48
4.881 0.5 2.7420001 67
5.223 0.41299999 2.756 68
5.552 0.32300001 2.7449999 69
5.9349999 0.234 2.7420001 49
4.8709998 0.60500002 2.75 57
5.197 0.52600002 2.7520001 67
5.5469999 0.44999999 2.7490001 67
5.928 0.375 2.744 48
4.8429999 0.70700002 2.7479999 56
5.184 0.64300001 2.7579999 65
5.5380001 0.57800001 2.7539999 67
5.9120002 0.51599997 2.744 48
4.8309999 0.81199998 2.757 70
5.1700001 0.75700003 2.763 69
5.5170002 0.70499998 2.7550001 65
5.9050002 0.65700001 2.7490001 49
4.8070002 0.91299999 2.7590001 69
5.1430001 0.87099999 2.763 67
5.4879999 0.82999998 2.7520001 68
5.8899999 0.79799998 2.7520001 49
4.7810001 1.013 2.76 69
5.1030002 0.97899997 2.756 70
5.4780002 0.95599997 2.7590001 67
5.8590002 0.935 2.7490001 49
4.744 1.1109999 2.757 73
5.0799999 1.092 2.76 69
5.4419999 1.08 2.757 68
5.8379998 1.074 2.7520001 49
4.7210002 1.212 2.763 74
5.0469999 1.2029999 2.76 69
5.4050002 1.202 2.7539999 67
5.8150001 1.214 2.757 49
4.6880002 1.3099999 2.7639999 74
5.0180001 1.313 2.763 69
5.3740001 1.326 2.757 68
5.7810001 1.352 2.7579999 49
4.652 1.4069999 2.7639999 75
4.987 1.424 2.767 67
5.3460002 1.45 2.7620001 69
5.7389998 1.487 2.757 48
4.6059999 1.501 2.76 80
4.9489999 1.5319999 2.7679999 70
5.303 1.5700001 2.7609999 64
5.7069998 1.625 2.7609999 50
4.5510001 1.59 2.7509999 86
4.9159999 1.642 2.773 70
5.2610002 1.691 2.7620001 67
5.6609998 1.7589999 2.7609999 49
4.506 1.682 2.7490001 94
4.875 1.748 2.7739999 68
5.2160001 1.809 2.7620001 68
5.619 1.8940001 2.7639999 48
4.4530001 1.77 2.7420001 103
4.8260002 1.853 2.7720001 71
5.178 1.9299999 2.7679999 69
5.5650001 2.0250001 2.7639999 48
4.4159999 1.864 2.7460001 112
4.776 1.955 2.7709999 68
5.1339998 2.0510001 2.773 70
5.5040002 2.1530001 2.7609999 48
4.3610001 1.951 2.7409999 101
4.7350001 2.062 2.776 70
5.0749998 2.1630001 2.77 70
5.454 2.2869999 2.767 48
4.3270001 2.0469999 2.7490001 100
4.6859999 2.165 2.7780001 70
5.0170002 2.277 2.77 69
5.402 2.418 2.7720001 49
4.2820001 2.138 2.753 100
4.6160002 2.2579999 2.7690001 75
4.9710002 2.3959999 2.777 69
5.3369999 2.5439999 2.773 48
4.244 2.2320001 2.7609999 91
4.5780001 2.3659999 2.779 71
4.9050002 2.5050001 2.7750001 69
5.2719998 2.6689999 2.7750001 49
4.2270002 2.3380001 2.7839999 76
4.5240002 2.467 2.783 67
4.8470001 2.6170001 2.7780001 67
5.2030001 2.7939999 2.777 49
4.177 2.4260001 2.786 76
4.4650002 2.5639999 2.783 70
4.789 2.73 2.7839999 67
5.1339998 2.9170001 2.78 49
4.1090002 2.5050001 2.7780001 74
4.4099998 2.6630001 2.7869999 71
4.717 2.836 2.783 65
5.0580001 3.0369999 2.7809999 49
4.0650001 2.5969999 2.7869999 72
4.3439999 2.757 2.7869999 72
4.6479998 2.9419999 2.7850001 69
4.9889998 3.161 2.789 50
4.006 2.681 2.7869999 73
4.2870002 2.855 2.7920001 72
4.5780001 3.049 2.789 69
4.9060001 3.276 2.79 49
3.944 2.7609999 2.786 71
4.224 2.95 2.796 72
4.506 3.1530001 2.7909999 69
4.8210001 3.391 2.7920001 49
3.8900001 2.846 2.79 72
4.1500001 3.036 2.7920001 72
4.4320002 3.2539999 2.793 69
4.4780002 3.312 2.641 46
3.826 2.9260001 2.79 73
4.0819998 3.1270001 2.7939999 70
4.3600001 3.3599999 2.8 68
4.3509998 3.382 2.618 38
3.7639999 3.006 2.7909999 75
4.0149999 3.22 2.8 72
4.191 3.3870001 2.744 45
4.223 3.45 2.595 38
3.7079999 3.092 2.799 75
3.9419999 3.3069999 2.8010001 71
3.9089999 3.312 2.6129999 38
4.0180001 3.447 2.5239999 36
3.638 3.1670001 2.7980001 76
3.8629999 3.3889999 2.8 72
3.858 3.425 2.6329999 36
3.8239999 3.4430001 2.457 37
3.569 3.2420001 2.7980001 76
3.6800001 3.375 2.7219999 60
3.697 3.438 2.5810001 50
3.638 3.438 2.3940001 50
3.503 3.3199999 2.8010001 75
3.457 3.3150001 2.6129999 49
3.5239999 3.4319999 2.5179999 49
3.4690001 3.4400001 2.3410001 51
3.4330001 3.3929999 2.802 75
3.4170001 3.424 2.641 50
3.3729999 3.4400001 2.4679999 51
3.302 3.437 2.2880001 52
3.2090001 3.309 2.6760001 39
3.2839999 3.4400001 2.598 50
3.214 3.4330001 2.4130001 53
3.1530001 3.4430001 2.2449999 54
3.0599999 3.2909999 2.609 51
3.1400001 3.438 2.5450001 53
3.0669999 3.4330001 2.3640001 52
3.0039999 3.4430001 2.2019999 55
3.0239999 3.395 2.6400001 51
2.9990001 3.4349999 2.494 51
2.9330001 3.4400001 2.3239999 54
2.859 3.441 2.1600001 55
2.9289999 3.4319999 2.619 52
2.8699999 3.437 2.45 52
2.796 3.437 2.2809999 53
2.7219999 3.4419999 2.1229999 58
2.8139999 3.4419999 2.5810001 53
2.7449999 3.4400001 2.4089999 54
2.6689999 3.4400001 2.244 54
2.5929999 3.448 2.0910001 57
2.6900001 3.437 2.533 52
2.6210001 3.437 2.3670001 55
2.5439999 3.4400001 2.2079999 55
2.4649999 3.447 2.0580001 56
2.579 3.4419999 2.4949999 53
2.5050001 3.441 2.332 54
2.425 3.4430001 2.1760001 55
2.3380001 3.4400001 2.0239999 60
2.47 3.4460001 2.4590001 54
2.391 3.4419999 2.2969999 54
2.3069999 3.4430001 2.1440001 57
2.22 3.441 1.997 59
2.359 3.444 2.4200001 56
2.276 3.437 2.2609999 53
2.194 3.4430001 2.115 57
2.105 3.444 1.973 60
2.2509999 3.441 2.3829999 55
2.1730001 3.444 2.234 56
2.0829999 3.441 2.086 56
1.988 3.4349999 1.944 60
2.1500001 3.444 2.352 55
2.062 3.4360001 2.1989999 55
1.971 3.434 2.056 57
1.756 3.21 1.796 61
2.049 3.444 2.3210001 56
1.911 3.3499999 2.1170001 58
1.87 3.441 2.036 62
1.776 3.4400001 1.905 63
1.946 3.434 2.2839999 57
1.862 3.4400001 2.148 61
1.768 3.4400001 2.013 64
1.6670001 3.431 1.881 64
1.851 3.4349999 2.257 57
1.763 3.437 2.122 61
1.665 3.4319999 1.988 64
1.571 3.441 1.869 65
1.757 3.4360001 2.23 58
1.666 3.4330001 2.0969999 63
1.572 3.4419999 1.975 65
1.471 3.437 1.852 69
1.6670001 3.437 2.2060001 57
1.574 3.438 2.0780001 63
1.475 3.437 1.955 64
1.374 3.437 1.8380001 66
1.579 3.4400001 2.184 61
1.482 3.4360001 2.0569999 64
1.381 3.4360001 1.937 63
1.28 3.4419999 1.8279999 68
1.49 3.4389999 2.161 62
1.3940001 3.441 2.0409999 63
1.2920001 3.4430001 1.927 63
1.187 3.4400001 1.816 71
1.4 3.431 2.135 62
1.306 3.441 2.0239999 62
1.201 3.4389999 1.911 63
1.095 3.4389999 1.8049999 70
1.316 3.434 2.1170001 64
1.22 3.4430001 2.0090001 65
1.11 3.4319999 1.895 63
1.0039999 3.4389999 1.7970001 71
1.233 3.434 2.098 67
1.132 3.437 1.99 67
1.025 3.437 1.886 62
0.91500002 3.438 1.789 70
1.151 3.438 2.0829999 65
1.05 3.4430001 1.98 74
0.93800002 3.4349999 1.875 62
0.82599998 3.4330001 1.78 86
1.0700001 3.4400001 2.0680001 64
0.96499997 3.4389999 1.965 70
0.85299999 3.4360001 1.867 64
0.56199998 2.612 1.35 7
0.98799998 3.4330001 2.0480001 66
0.88300002 3.441 1.955 73
0.76899999 3.431 1.8559999 67
0.65399998 3.437 1.773 75
0.90700001 3.4300001 2.0320001 67
0.801 3.437 1.942 67
0.68400002 3.424 1.846 63
0.56800002 3.4289999 1.766 75
0.82999998 3.4319999 2.02 78
0.71899998 3.431 1.929 71
0.60299999 3.4289999 1.8430001 60
0.48500001 3.4300001 1.7640001 79
0.75199997 3.4349999 2.0090001 66
0.63999999 3.431 1.92 70
0.52200001 3.4300001 1.839 66
0.40099999 3.431 1.7640001 82
0.67500001 3.4349999 1.998 78
0.56099999 3.431 1.913 80
0.44100001 3.427 1.834 60
0.31799999 3.4300001 1.7640001 72
0.597 3.4330001 1.9859999 76
0.48300001 3.434 1.908 73
0.36000001 3.4230001 1.83 66
0.235 3.434 1.768 86
0.52200001 3.437 1.979 73
0.40400001 3.4349999 1.903 73
0.28 3.427 1.83 70
0.152 3.418 1.762 79
0.44400001 3.4289999 1.966 81
0.32699999 3.4349999 1.899 75
0.2 3.4159999 1.824 73
0 0 0 0
0.37 3.4360001 1.962 81
0.249 3.4330001 1.8940001 72
0.122 3.4189999 1.825 68
-0.0020000001 0.90100002 0.46599999 12
0.29499999 3.4319999 1.9529999 80
0.171 3.4070001 1.877 77
0 0 0 0
-0.023 0.89099997 0.463 12
0.219 3.4330001 1.948 81
0.094999999 3.431 1.888 75
-0.0089999996 0.903 0.48300001 11
-0.044 0.87800002 0.458 11
0.14399999 3.437 1.944 76
0 0 0 0
-0.028999999 0.88499999 0.47400001 16
-0.064999998 0.88099998 0.461 12
0.068999998 3.4300001 1.937 77
-0.015 0.89300001 0.491 16
-0.048999999 0.875 0.47 11
-0.086000003 0.875 0.46000001 11
0 0 0 0
-0.034000002 0.87800002 0.48300001 17
-0.07 0.88200003 0.47499999 11
-0.107 0.87900001 0.465 11
-0.021 0.898 0.505 12
-0.054000001 0.87300003 0.48100001 14
-0.090000004 0.88 0.47600001 11
-0.12800001 0.87300003 0.465 11
-0.039999999 0.88999999 0.5 12
-0.072999999 0.86400002 0.477 15
-0.111 0.87699997 0.47600001 11
-0.164 0.963 0.51599997 8
-0.057999998 0.86400002 0.48500001 15
-0.093000002 0.86799997 0.47999999 15
-0.13 0.87199998 0.47499999 11
-0.18799999 0.96600002 0.52200001 10
-0.077 0.86699998 0.48699999 17
-0.112 0.86400002 0.479 15
-0.163 0.94 0.51499999 9
-0.204 0.93000001 0.50599998 12
-0.096000001 0.86299998 0.486 16
-0.134 0.87800002 0.48800001 11
-0.189 0.95999998 0.52899998 9
-0.223 0.912 0.5 12
-0.115 0.86400002 0.48699999 17
-0.164 0.93099999 0.51899999 10
-0.206 0.93099999 0.51599997 11
-0.24600001 0.91000003 0.50400001 12
-0.13699999 0.88 0.49700001 11
-0.189 0.94999999 0.53200001 10
-0.226 0.92000002 0.514 11
-0.26800001 0.90799999 0.50800002 12
-0.16500001 0.921 0.52100003 10
-0.207 0.92900002 0.523 11
-0.248 0.91600001 0.51599997 12
-0.29699999 0.926 0.523 11
-0.19 0.94 0.53299999 12
-0.227 0.92000002 0.52100003 11
-0.26800001 0.90899998 0.51599997 11
-0.329 0.94499999 0.54000002 3
-0.20900001 0.93099999 0.52899998 12
-0.24699999 0.91299999 0.51899999 11
-0.29499999 0.92299998 0.528 10
-1.053 2.813 1.625 15
-0.229 0.92400002 0.52700001 12
-0.26899999 0.912 0.52200001 11
-0.324 0.93800002 0.54100001 3
-1.1289999 2.813 1.645 22
-0.24699999 0.90700001 0.51999998 18
-0.296 0.92400002 0.53299999 10
-1.048 2.8150001 1.641 8
-1.465 3.4159999 2.023 59
-0.27200001 0.91900003 0.52899998 13
-0.324 0.94099998 0.546 3
-1.365 3.4260001 2.0179999 30
-1.564 3.4219999 2.0539999 64
-0.29499999 0.91900003 0.53200001 12
-1.044 2.8180001 1.65 2
-1.454 3.4189999 2.036 66
-1.658 3.415 2.079 61
-0.32300001 0.93400002 0.54400003 4
-1.358 3.425 2.023 47
-1.551 3.424 2.063 66
-1.7589999 3.4170001 2.1110001 59
-1.04 2.8039999 1.643 5
-1.452 3.4319999 2.046 64
-1.641 3.4130001 2.0810001 67
-1.862 3.4170001 2.1440001 59
-1.358 3.425 2.0209999 36
-1.539 3.4189999 2.0580001 65
-1.745 3.424 2.115 67
-1.967 3.418 2.1789999 59
-1.446 3.4200001 2.033 65
-1.637 3.4289999 2.085 66
-1.844 3.4219999 2.142 65
-2.073 3.4159999 2.2149999 59
-1.538 3.4219999 2.0510001 66
-1.732 3.4230001 2.105 64
-1.944 3.418 2.1700001 65
-1.038 1.623 1.071 12
-1.631 3.421 2.069 67
-1.829 3.421 2.128 64
-2.053 3.425 2.207 57
-1.0650001 1.584 1.0650001 79
-1.725 3.418 2.086 64
-1.929 3.4200001 2.154 63
-1.028 1.6289999 1.066 1
-1.072 1.517 1.039 98
-1.825 3.421 2.109 63
-2.036 3.4260001 2.1860001 63
-1.062 1.6 1.064 77
-1.099 1.4809999 1.035 85
-1.926 3.4230001 2.1329999 65
-2.1440001 3.427 2.217 62
-1.068 1.531 1.036 81
-1.112 1.428 1.0190001 76
-2.0239999 3.414 2.152 59
-1.054 1.603 1.052 76
-1.092 1.492 1.028 89
-1.124 1.377 1.003 98
-2.1370001 3.425 2.1849999 60
-1.062 1.5369999 1.024 76
-1.109 1.444 1.0140001 75
-1.146 1.339 0.99800003 88
-1.057 1.612 1.0420001 66
-1.0880001 1.501 1.016 77
-1.1210001 1.393 0.99699998 84
-1.183 1.321 1.007 111
-1.0599999 1.54 1.0089999 72
-1.11 1.461 1.006 75
-1.145 1.358 0.99199998 84
-1.224 1.304 1.018 93
-1.084 1.5 0.99699998 85
-1.115 1.4 0.98100001 83
-1.169 1.325 0.98799998 83
-1.248 1.27 1.017 51
-1.105 1.4579999 0.98400003 70
-1.14 1.365 0.97500002 86
-1.212 1.312 1 80
-3.474 3.3759999 2.776 60
-1.115 1.404 0.963 85
-1.159 1.326 0.96499997 75
-1.2410001 1.283 1.001 76
-3.586 3.3269999 2.812 73
-1.142 1.372 0.958 89
-1.206 1.317 0.97899997 84
-1.243 1.227 0.98100001 4
-3.651 3.2360001 2.812 70
-1.158 1.3279999 0.94400001 78
-1.238 1.2920001 0.98100001 74
-3.585 3.381 2.7720001 66
-3.7130001 3.142 2.812 68
-1.202 1.316 0.95300001 78
-1.233 1.23 0.95499998 23
-3.7030001 3.336 2.8080001 59
-3.7709999 3.046 2.8110001 71
-1.2359999 1.293 0.95499998 70
-3.4489999 3.2839999 2.6110001 50
-3.77 3.2449999 2.806 64
-3.822 2.947 2.8069999 68
-1.232 1.23 0.92799997 47
-3.6110001 3.2850001 2.6760001 41
-3.8380001 3.1530001 2.8069999 70
-3.875 2.849 2.8050001 67
-3.556 3.3929999 2.618 35
-3.868 3.359 2.809 65
-3.8989999 3.0569999 2.803 70
-3.9260001 2.7509999 2.8039999 69
-3.661 3.335 2.6340001 36
-3.9349999 3.263 2.803 73
-3.9590001 2.961 2.802 72
-3.98 2.6559999 2.8069999 70
-3.7449999 3.257 2.6359999 41
-4.0040002 3.168 2.799 71
-4.02 2.8659999 2.802 77
-4.0250001 2.5569999 2.8050001 74
-4.0549998 3.3659999 2.796 69
-4.0700002 3.0710001 2.796 69
-4.0549998 2.7539999 2.786 69
-4.0640001 2.454 2.8010001 72
-4.0710001 3.224 2.7520001 62
-4.0619998 2.921 2.7449999 65
-4.0599999 2.6240001 2.7520001 65
-4.0650001 2.332 2.7720001 65
-4.066 3.0680001 2.6960001 62
-4.0599999 2.7809999 2.7 64
-4.066 2.4990001 2.721 64
-4.059 2.207 2.7409999 61
-4.0619998 2.921 2.645 62
-4.0640001 2.648 2.6619999 64
-4.0549998 2.3670001 2.681 62
-4.059 2.0899999 2.7160001 62
-4.0619998 2.78 2.599 64
-4.0630002 2.516 2.6229999 65
-4.053 2.243 2.6489999 63
-4.0560002 1.975 2.691 60
-4.0669999 2.6470001 2.5599999 63
-4.0489998 2.381 2.5780001 63
-4.0560002 2.1270001 2.6229999 64
-4.0549998 1.863 2.6700001 62
-4.052 2.5050001 2.51 63
-4.053 2.26 2.5480001 63
-4.053 2.01 2.595 64
-4.0500002 1.752 2.6470001 61
-4.0489998 2.375 2.47 66
-4.053 2.1389999 2.517 63
-4.0479999 1.893 2.5680001 63
-4.0510001 1.646 2.6300001 61
-4.0510001 2.25 2.437 66
-4.0450001 2.017 2.483 63
-4.0500002 1.784 2.546 63
-4.0549998 1.543 2.6170001 61
-4.046 2.1259999 2.401 63
-4.0539999 1.906 2.4619999 64
-4.0489998 1.675 2.5239999 64
-4.0500002 1.438 2.599 64
-4.0570002 2.0109999 2.3770001 64
-4.053 1.794 2.437 64
-4.0450001 1.567 2.503 63
-4.059 1.341 2.592 63
-4.0500002 1.891 2.345 67
-4.0510001 1.682 2.4130001 65
-4.053 1.465 2.4909999 65
-4.0549998 1.24 2.5780001 66
-4.0479999 1.776 2.3169999 66
-4.053 1.574 2.3929999 65
-4.0560002 1.364 2.477 65
-4.0489998 1.141 2.5639999 64
-4.053 1.666 2.2950001 68
-4.0560002 1.469 2.3740001 64
-4.046 1.2589999 2.4560001 65
-4.0560002 1.046 2.559 66
-4.0500002 1.5549999 2.2709999 67
-4.0570002 1.364 2.3570001 67
-4.052 1.161 2.4460001 66
-4.059 0.95200002 2.5539999 65
-4.0469999 1.446 2.2479999 68
-4.0539999 1.2589999 2.3380001 70
-4.0500002 1.062 2.434 65
-4.052 0.85600001 2.543 64
-4.0549998 1.341 2.233 69
-4.0580001 1.159 2.325 70
-4.0500002 0.96499997 2.424 72
-4.0570002 0.764 2.5420001 67
-4.046 1.233 2.21 67
-4.0469999 1.0549999 2.306 72
-4.0500002 0.86900002 2.4159999 65
-4.0489998 0.671 2.533 66
-4.0489998 1.131 2.1960001 72
-4.059 0.95899999 2.3010001 69
-4.0570002 0.77499998 2.4119999 70
-4.052 0.57999998 2.5320001 66
-4.0510001 1.029 2.1830001 69
-4.0539999 0.86000001 2.2880001 76
-4.0500002 0.67900002 2.402 72
-4.0599999 0.491 2.5350001 65
-4.0419998 0.926 2.164 74
-4.0479999 0.76099998 2.276 72
-4.052 0.58600003 2.398 72
-4.0500002 0.39899999 2.529 66
-4.046 0.82700002 2.155 72
-4.0479999 0.66399997 2.267 73
-4.0500002 0.493 2.3940001 74
-4.053 0.31 2.5309999 66
-4.0500002 0.72799999 2.1470001 74
-4.053 0.56900001 2.2639999 74
-4.0489998 0.40000001 2.3900001 71
-4.0570002 0.221 2.5369999 67
-4.0430002 0.62800002 2.135 75
-4.0500002 0.47299999 2.257 73
-4.0549998 0.30899999 2.3929999 73
-4.0549998 0.132 2.539 66
-4.0469999 0.52999997 2.1289999 77
-4.0570002 0.38 2.257 75
-4.0510001 0.21699999 2.3900001 71
-4.053 0.044 2.5409999 66
-4.0430002 0.433 2.1210001 76
-4.0549998 0.28400001 2.253 74
-4.04 0.126 2.385 74
-4.0549998 -0.043000001 2.5480001 66
-4.0450001 0.336 2.1170001 74
-4.0489998 0.19 2.2490001 74
-4.0500002 0.035 2.3929999 74
-4.0510001 -0.131 2.553 67
-4.0419998 0.23899999 2.1129999 80
-4.0539999 0.097000003 2.2520001 75
-4.046 -0.055 2.395 74
-4.0450001 -0.219 2.556 67
-3.9690001 0.14 2.073 87
-4.052 0.0020000001 2.2520001 74
-4.0440001 -0.146 2.3989999 74
-4.0469999 -0.30700001 2.5669999 67
-3.9660001 0.045000002 2.0699999 94
-4.053 -0.090000004 2.2550001 76
-4.0489998 -0.237 2.408 73
-4.0500002 -0.396 2.5780001 67
-3.9619999 -0.048 2.069 99
-4.0500002 -0.185 2.257 74
-4.0500002 -0.32800001 2.4159999 73
-4.0469999 -0.484 2.5880001 67
-3.9719999 -0.14300001 2.076 96
-4.0560002 -0.27900001 2.266 74
-4.0419998 -0.41999999 2.4189999 70
-4.0510001 -0.574 2.6029999 67
-3.967 -0.23800001 2.0769999 98
-4.0489998 -0.373 2.2679999 74
-4.0539999 -0.51300001 2.4360001 72
-4.0479999 -0.662 2.6140001 69
-3.971 -0.33399999 2.0829999 96
-4.0500002 -0.46799999 2.277 75
-4.0510001 -0.60399997 2.4449999 72
-4.0510001 -0.75300002 2.631 66
-3.9719999 -0.42899999 2.0899999 93
-4.0489998 -0.56300002 2.2850001 74
-4.0409999 -0.69599998 2.451 71
-4.0489998 -0.84299999 2.6459999 67
-3.9660001 -0.52499998 2.095 86
-4.0450001 -0.65799999 2.293 74
-4.0479999 -0.79100001 2.47 69
-4.0440001 -0.93300003 2.6600001 69
-3.974 -0.62300003 2.1070001 99
-4.0469999 -0.75599998 2.3069999 71
-4.0510001 -0.88599998 2.487 66
-4.0380001 -1.024 2.674 66
-3.9809999 -0.72299999 2.1210001 83
-4.0500002 -0.85399997 2.3210001 73
-4.0430002 -0.98000002 2.4979999 65
-4.0549998 -1.1210001 2.7049999 68
-3.9990001 -0.82499999 2.1429999 80
-4.0500002 -0.95300001 2.336 73
-4.0440001 -1.076 2.517 65
-4.0440001 -1.211 2.7190001 72
-4.006 -0.92699999 2.1589999 77
-4.0510001 -1.053 2.3529999 73
-4.046 -1.174 2.5369999 64
-4.0149999 -1.2970001 2.7219999 74
-4.0320001 -1.036 2.1889999 74
-4.0489998 -1.153 2.3699999 71
-4.0440001 -1.272 2.5569999 66
-4.0110002 -1.391 2.743 55
-4.0489998 -1.145 2.2149999 68
-4.0510001 -1.256 2.391 69
-4.027 -1.3660001 2.5680001 67
-3.9809999 -1.477 2.7479999 74
-4.0430002 -1.249 2.23 67
-4.0560002 -1.362 2.415 72
-3.9909999 -1.454 2.569 65
-3.9419999 -1.559 2.747 72
-4.0500002 -1.359 2.2539999 69
-3.9579999 -1.431 2.378 97
-3.9560001 -1.5420001 2.572 65
-3.9070001 -1.643 2.7520001 73
-3.964 -1.436 2.227 95
-3.9590001 -1.5369999 2.404 100
-3.9119999 -1.626 2.5699999 66
-3.858 -1.719 2.7449999 71
-3.9560001 -1.5420001 2.2460001 96
-3.9719999 -1.649 2.437 84
-3.9460001 -1.745 2.6210001 72
-3.8050001 -1.793 2.7379999 72
-3.951 -1.651 2.2679999 83
-4.007 -1.774 2.4860001 67
-3.9879999 -1.87 2.6800001 74
-3.7650001 -1.874 2.7409999 71
-3.96 -1.768 2.3010001 92
-4.0349998 -1.9 2.5350001 65
-4.0120001 -1.9910001 2.7279999 74
-3.721 -1.951 2.7420001 72
-4.046 -1.925 2.381 68
-4.0240002 -2.01 2.5599999 64
-3.9679999 -2.082 2.733 73
-3.6730001 -2.027 2.7409999 67
-4.0469999 -2.046 2.414 67
-3.9649999 -2.0969999 2.5569999 61
-3.9070001 -2.1619999 2.727 71
-3.6229999 -2.1010001 2.74 68
-4.0430002 -2.168 2.4460001 68
-3.9119999 -2.1860001 2.559 66
-3.858 -2.2479999 2.7309999 71
-3.576 -2.175 2.7409999 73
-4.0440001 -2.296 2.484 65
-3.99 -2.3540001 2.6489999 77
-3.8010001 -2.3299999 2.7309999 70
-3.516 -2.243 2.7349999 70
-4.0450001 -2.427 2.5239999 66
-4.0250001 -2.5020001 2.714 77
-3.7379999 -2.4070001 2.7260001 70
-3.4679999 -2.316 2.737 68
-4.0229998 -2.5469999 2.553 61
-3.9790001 -2.6029999 2.7279999 76
-3.678 -2.4860001 2.727 68
-3.4130001 -2.385 2.7360001 73
-3.9430001 -2.6329999 2.5469999 56
-3.914 -2.6930001 2.7309999 74
-3.6129999 -2.5599999 2.723 70
-3.359 -2.4560001 2.737 69
-3.849 -2.707 2.533 59
-3.8469999 -2.78 2.7320001 63
-3.546 -2.6340001 2.721 68
-3.3010001 -2.5220001 2.7349999 69
-3.78 -2.7969999 2.5369999 58
-3.6570001 -2.7750001 2.6470001 32
-3.4890001 -2.714 2.7260001 70
-3.2449999 -2.5899999 2.737 70
-3.707 -2.8829999 2.539 33
-3.4189999 -2.721 2.5250001 50
-3.4200001 -2.7839999 2.723 71
-3.1830001 -2.652 2.733 71
-3.5209999 -2.8770001 2.4630001 45
-3.424 -2.8570001 2.5810001 46
-3.303 -2.812 2.6819999 72
-3.1259999 -2.7179999 2.734 71
-3.3529999 -2.8789999 2.4000001 44
-3.3 -2.8859999 2.5420001 45
-3.0569999 -2.7219999 2.5339999 51
-3.0639999 -2.78 2.734 72
-3.194 -2.878 2.3399999 48
-3.154 -2.891 2.4849999 47
-3.026 -2.8169999 2.562 44
-2.9890001 -2.829 2.721 71
-3.0469999 -2.8829999 2.289 50
-3.003 -2.8840001 2.4230001 48
-2.964 -2.8859999 2.5680001 46
-2.724 -2.6900001 2.533 44
-2.901 -2.8800001 2.237 50
-2.8710001 -2.888 2.375 49
-2.8410001 -2.891 2.5190001 46
-2.655 -2.7349999 2.523 42
-2.7590001 -2.8759999 2.1860001 52
-2.7360001 -2.8829999 2.322 48
-2.7119999 -2.885 2.464 47
-2.661 -2.858 2.5869999 45
-2.27 -2.483 1.85 76
-2.605 -2.875 2.2720001 49
-2.5910001 -2.882 2.415 48
-2.579 -2.891 2.5680001 45
-2.152 -2.47 1.806 80
-2.4820001 -2.8710001 2.2260001 54
-2.4779999 -2.881 2.3710001 48
-2.4719999 -2.891 2.5220001 47
-2.0420001 -2.4630001 1.7690001 73
-2.0420001 -2.474 1.886 122
-2.3659999 -2.878 2.3280001 49
-2.362 -2.8829999 2.473 46
-1.944 -2.4619999 1.739 83
-1.939 -2.4649999 1.847 79
-2.2609999 -2.8770001 2.289 49
-2.263 -2.8840001 2.434 47
-1.845 -2.457 1.709 79
-1.845 -2.46 1.8150001 78
-2.158 -2.8759999 2.2520001 51
-2.1670001 -2.885 2.3959999 47
-1.724 -2.4159999 1.655 77
-1.733 -2.4260001 1.7640001 65
-2.062 -2.8789999 2.221 50
-2.0710001 -2.882 2.358 50
-1.637 -2.414 1.632 93
-1.6440001 -2.418 1.733 67
-1.965 -2.8759999 2.187 52
-1.983 -2.8859999 2.3269999 50
-1.5599999 -2.425 1.618 101
-1.562 -2.415 1.7079999 96
-1.875 -2.878 2.1589999 71
-1.892 -2.882 2.2920001 50
-1.474 -2.4170001 1.5930001 89
-1.489 -2.424 1.694 96
-1.498 -2.415 1.789 150
-1.806 -2.881 2.2609999 51
-1.399 -2.424 1.58 87
-1.413 -2.424 1.674 82
-1.424 -2.4130001 1.766 108
-1.723 -2.882 2.233 51
-1.329 -2.437 1.572 82
-1.341 -2.428 1.659 83
-1.359 -2.424 1.753 74
-1.641 -2.882 2.2060001 50
-1.294 -2.516 1.608 3
-1.296 -2.4809999 1.677 25
-1.2869999 -2.4200001 1.732 80
-1.557 -2.8729999 2.174 56
-1.286 -2.655 1.682 53
-1.267 -2.569 1.72 9
-1.28 -2.5409999 1.799 13
-1.482 -2.8789999 2.155 55
-1.283 -2.8199999 1.772 0
-1.329 -2.8599999 1.899 75
-1.365 -2.8670001 2.0109999 54
-1.403 -2.872 2.1270001 58
-1.2180001 -2.8559999 1.783 77
-1.253 -2.8659999 1.887 65
-1.288 -2.8659999 1.992 57
-1.325 -2.865 2.0999999 57
-1.14 -2.8640001 1.775 70
-1.174 -2.865 1.873 73
-1.214 -2.868 1.976 59
-1.253 -2.8670001 2.0829999 61
-1.0599999 -2.8599999 1.763 71
-1.096 -2.8599999 1.8559999 70
-1.14 -2.8710001 1.9630001 60
-1.181 -2.8659999 2.063 60
-0.98299998 -2.862 1.755 71
-1.023 -2.8659999 1.849 72
-1.0650001 -2.8640001 1.944 56
-1.1109999 -2.8659999 2.046 59
-0.90799999 -2.865 1.75 66
-0.94800001 -2.8640001 1.837 70
-0.99199998 -2.859 1.928 61
-1.045 -2.8759999 2.0369999 69
-0.83499998 -2.8729999 1.748 65
-0.87400001 -2.859 1.826 72
-0.92400002 -2.868 1.9220001 59
-0.977 -2.8770001 2.0220001 64
-0.759 -2.8670001 1.739 64
-0.80400002 -2.8659999 1.822 69
-0.85299999 -2.862 1.906 58
-0.90700001 -2.8710001 2.003 67
-0.68800002 -2.8759999 1.7410001 62
-0.73500001 -2.8710001 1.818 68
-0.78399998 -2.862 1.896 60
-0.84100002 -2.8710001 1.99 67
-0.61500001 -2.8729999 1.7359999 63
-0.66399997 -2.8710001 1.812 59
-0.71700001 -2.8629999 1.888 56
-0.77399999 -2.8659999 1.974 74
-0.54299998 -2.8659999 1.73 64
-0.59600002 -2.8740001 1.8099999 60
-0.65200001 -2.8699999 1.885 59
-0.70899999 -2.8670001 1.964 66
-0.472 -2.869 1.73 62
-0.52700001 -2.8710001 1.804 60
-0.58499998 -2.8659999 1.876 51
-0.64600003 -2.8710001 1.956 71
-0.39700001 -2.8329999 1.709 107
-0.458 -2.868 1.799 62
-0.51999998 -2.8729999 1.874 52
-0.58200002 -2.872 1.948 72
-0.331 -2.862 1.728 64
-0.38600001 -2.832 1.775 102
-0.45500001 -2.8740001 1.87 51
-0.51800001 -2.8670001 1.936 65
-0.23999999 -2.6140001 1.581 11
-0.324 -2.8640001 1.795 75
-0.38699999 -2.852 1.851 71
-0.45500001 -2.8699999 1.9299999 63
-0.18099999 -2.668 1.617 10
-0.24699999 -2.7550001 1.727 23
-0.324 -2.865 1.857 57
0 0 0 50
-0.052000001 -1.188 0.722 29
-0.18099999 -2.711 1.7 30
-0.25999999 -2.8670001 1.8559999 51
-0.33000001 -2.8699999 1.9170001 61
-0.023 -1.181 0.72000003 15
-0.050999999 -1.182 0.74199998 7
-0.19599999 -2.865 1.853 55
-0.26899999 -2.8740001 1.915 61
0 0 0 50
-0.024 -1.163 0.73199999 9
-0.055 -1.188 0.76800001 3
-0.207 -2.8729999 1.91 65
0.07 -2.5929999 1.5930001 4
0.0020000001 -1.171 0.73799998 6
-0.028000001 -1.155 0.74699998 7
-0.145 -2.8670001 1.903 54
0.057 -1.122 0.69199997 58
0.063000001 -2.5469999 1.6109999 2
-0.0020000001 -1.156 0.74800003 9
-0.034000002 -1.165 0.77200001 39
0.082000002 -1.103 0.68400002 14
0.054000001 -1.133 0.71799999 23
0.023 -1.163 0.75400001 1
-0.0089999996 -1.156 0.76499999 11
0.108 -1.096 0.68400002 14
0.078000002 -1.103 0.70300001 8
0 0 0 50
0.015 -1.153 0.76300001 7
0.132 -1.084 0.68199998 13
0.102 -1.089 0.69700003 11
0.071999997 -1.12 0.72899997 10
0.088 -2.5179999 1.6670001 5
0.15800001 -1.08 0.68400002 13
0.126 -1.082 0.69599998 12
0.093999997 -1.091 0.71200001 11
0.063000001 -1.12 0.74199998 63
0.183 -1.076 0.68699998 14
0.15099999 -1.08 0.69800001 11
0.118 -1.087 0.71100003 12
0.086000003 -1.101 0.73000002 9
0.211 -1.084 0.69800001 12
0.177 -1.085 0.70599997 10
0.142 -1.081 0.70999998 12
0.108 -1.0880001 0.722 13
0.237 -1.081 0.70300001 8
0.20200001 -1.085 0.70999998 11
0.16599999 -1.081 0.713 10
0.132 -1.084 0.72100002 13
0.26899999 -1.1 0.722 10
0.227 -1.0779999 0.71100003 9
0.191 -1.081 0.71700001 10
0.156 -1.0829999 0.722 12
0.29899999 -1.112 0.73699999 15
0.257 -1.097 0.72899997 9
0.21699999 -1.087 0.72399998 11
0.18000001 -1.089 0.72799999 12
0.33399999 -1.133 0.759 10
0.28799999 -1.113 0.74599999 12
0.244 -1.096 0.73400003 8
0.204 -1.082 0.72500002 13
0.37099999 -1.159 0.78500003 9
0.31600001 -1.117 0.755 9
0.27399999 -1.112 0.75 12
0.23 -1.09 0.73400003 8
0.42699999 -1.232 0.84500003 14
0.35100001 -1.142 0.77899998 10
0.30000001 -1.1109999 0.75400001 11
0.259 -1.109 0.75 12
0.46700001 -1.252 0.86900002 65
0.39700001 -1.192 0.82099998 13
0.333 -1.132 0.77399999 9
0.287 -1.118 0.759 15
0.50300002 -1.26 0.88599998 29
0.44100001 -1.23 0.85600001 15
0.366 -1.151 0.79299998 8
0.31200001 -1.114 0.75999999 10
1.224 -2.868 2.046 61
0.484 -1.26 0.88700002 72
0.419 -1.222 0.84899998 15
0.34599999 -1.14 0.78299999 10
1.302 -2.8640001 2.073 58
0.51499999 -1.256 0.89399999 3
0.45300001 -1.232 0.86299998 11
0.38299999 -1.17 0.80800003 9
1.3839999 -2.8659999 2.1059999 57
1.252 -2.865 2.0650001 61
0.495 -1.258 0.88999999 86
0.43200001 -1.227 0.85299999 17
1.4680001 -2.868 2.1400001 54
1.331 -2.8659999 2.0929999 65
1.202 -2.868 2.049 51
0.472 -1.252 0.87699997 70
1.554 -2.869 2.177 56
1.4119999 -2.869 2.1229999 63
1.278 -2.868 2.072 54
0.50700003 -1.26 0.88999999 27
1.642 -2.8710001 2.2160001 54
1.495 -2.8710001 2.154 65
1.355 -2.868 2.0940001 54
1.225 -2.8629999 2.039 59
1.733 -2.875 2.257 52
1.582 -2.8759999 2.1900001 55
1.433 -2.865 2.1170001 56
1.303 -2.869 2.062 60
1.827 -2.8789999 2.302 51
0 0 0 50
1.516 -2.869 2.1470001 56
1.38 -2.869 2.0810001 62
1.921 -2.878 2.346 51
1.753 -2.8729999 2.257 54
1.599 -2.8710001 2.1760001 55
1.4579999 -2.868 2.102 61
2.0179999 -2.878 2.3929999 50
1.845 -2.8759999 2.2969999 55
1.683 -2.868 2.204 55
1.539 -2.868 2.125 59
2.1170001 -2.8759999 2.441 50
1.934 -2.8710001 2.3329999 54
1.773 -2.8740001 2.24 57
1.622 -2.868 2.1500001 58
2.22 -2.8770001 2.494 51
2.0339999 -2.8759999 2.3800001 52
1.86 -2.869 2.27 56
1.705 -2.8670001 2.175 56
2.3299999 -2.8800001 2.553 49
2.1300001 -2.872 2.421 49
1.9529999 -2.8699999 2.3069999 53
1.801 -2.8800001 2.214 56
2.3870001 -2.8169999 2.5539999 47
2.23 -2.8699999 2.467 49
2.0450001 -2.8659999 2.342 50
1.886 -2.872 2.2379999 51
2.4070001 -2.711 2.5179999 50
2.3410001 -2.8770001 2.5239999 50
2.148 -2.872 2.3870001 50
1.978 -2.8710001 2.2690001 52
2.5940001 -2.793 2.658 67
2.4389999 -2.8629999 2.566 48
2.25 -2.872 2.431 50
2.076 -2.8740001 2.306 51
2.7019999 -2.78 2.7130001 64
2.4719999 -2.773 2.5409999 46
2.3540001 -2.8710001 2.4760001 49
2.1760001 -2.8759999 2.3440001 52
2.7509999 -2.704 2.71 66
2.5469999 -2.7320001 2.5599999 57
2.4690001 -2.8770001 2.53 48
2.279 -2.875 2.3840001 52
1.399 -1.314 1.353 5
2.7390001 -2.8080001 2.6949999 71
2.562 -2.8540001 2.563 50
2.3859999 -2.8759999 2.4260001 49
1.39 -1.248 1.323 40
2.8139999 -2.7579999 2.7130001 73
2.5999999 -2.77 2.54 51
2.4979999 -2.8770001 2.473 53
1.404 -1.205 1.3150001 38
1.404 -1.3150001 1.3279999 1
2.678 -2.7279999 2.5580001 61
2.612 -2.8759999 2.52 49
1.441 -1.181 1.329 38
1.402 -1.256 1.302 31
2.875 -2.8 2.688 67
2.7290001 -2.8729999 2.569 49
1.55 -1.2130001 1.409 18
0 0 0 50
1.441 -1.342 1.3200001 5
2.773 -2.79 2.549 51
3.026 -2.2609999 2.7149999 64
1.455 -1.191 1.307 32
1.437 -1.28 1.291 37
1.406 -1.353 1.2640001 15
3.072 -2.1889999 2.721 63
3.0780001 -2.4059999 2.721 59
1.452 -1.2359999 1.281 36
1.425 -1.311 1.253 92
3.1110001 -2.115 2.723 64
3.119 -2.3280001 2.717 71
1.512 -1.229 1.309 20
1.4529999 -1.277 1.252 84
3.1459999 -2.0369999 2.723 70
3.168 -2.256 2.721 71
3.1900001 -2.4760001 2.717 66
1.47 -1.234 1.2410001 74
3.1819999 -1.961 2.7249999 63
3.207 -2.178 2.7190001 67
3.243 -2.4030001 2.7179999 73
1.5190001 -1.2180001 1.258 48
3.2149999 -1.883 2.7249999 67
3.2490001 -2.102 2.7190001 70
3.299 -2.332 2.723 73
1.574 -1.205 1.281 3
3.2420001 -1.804 2.723 69
3.2950001 -2.0280001 2.7249999 70
3.345 -2.253 2.72 65
3.3970001 -2.4790001 2.7160001 68
3.267 -1.725 2.721 65
3.3310001 -1.95 2.724 71
3.3889999 -2.1730001 2.7179999 70
3.46 -2.4059999 2.72 71
3.3010001 -1.65 2.727 68
3.3659999 -1.872 2.723 72
3.441 -2.099 2.723 66
3.5139999 -2.3269999 2.72 69
3.325 -1.572 2.7260001 66
3.404 -1.794 2.727 70
3.484 -2.02 2.723 66
3.5669999 -2.247 2.7190001 69
3.3559999 -1.497 2.733 63
3.4389999 -1.717 2.7290001 72
3.5220001 -1.937 2.72 67
3.619 -2.1659999 2.7190001 71
3.3770001 -1.418 2.7320001 69
3.47 -1.636 2.7290001 70
3.563 -1.857 2.7219999 67
3.668 -2.0840001 2.7190001 72
3.388 -1.336 2.7260001 64
3.503 -1.558 2.733 71
3.6059999 -1.777 2.7249999 71
3.7149999 -1.999 2.7179999 69
3.414 -1.261 2.7320001 65
3.529 -1.477 2.7320001 71
0 0 0 50
3.7679999 -1.918 2.724 68
3.4289999 -1.182 2.7309999 61
3.546 -1.393 2.7260001 72
3.684 -1.613 2.7309999 66
3.8110001 -1.83 2.723 70
3.448 -1.105 2.734 66
3.576 -1.314 2.7320001 70
3.7149999 -1.528 2.73 70
3.852 -1.743 2.723 68
3.4679999 -1.028 2.74 63
3.598 -1.2309999 2.7320001 72
3.744 -1.442 2.7290001 74
3.898 -1.656 2.727 70
2.8399999 -0.77499998 2.2360001 54
3.6170001 -1.15 2.7320001 71
3.7780001 -1.358 2.733 72
3.934 -1.566 2.7260001 66
2.8440001 -0.71100003 2.233 54
2.846 -0.83600003 2.138 9
3.809 -1.273 2.737 73
3.97 -1.476 2.7260001 68
2.849 -0.64600003 2.2309999 54
2.8410001 -0.76700002 2.125 62
3.825 -1.183 2.73 74
4.0110002 -1.386 2.7320001 70
2.846 -0.58099997 2.224 55
2.842 -0.69999999 2.118 61
2.8540001 -0.81300002 2.0250001 28
4.0419998 -1.293 2.7309999 70
2.848 -0.51800001 2.223 56
2.8440001 -0.634 2.112 61
2.835 -0.73799998 2.0009999 60
2.829 -0.833 1.898 0
2.852 -0.45500001 2.224 62
2.8399999 -0.56699997 2.1029999 67
2.8399999 -0.671 1.995 61
2.845 -0.76700002 1.896 72
2.849 -0.39199999 2.22 62
2.842 -0.50199997 2.099 64
2.8410001 -0.60399997 1.987 59
2.8440001 -0.69599998 1.885 73
2.8469999 -0.33000001 2.2179999 58
2.845 -0.43900001 2.0969999 62
2.8410001 -0.537 1.98 63
2.845 -0.62699997 1.876 65
2.852 -0.26800001 2.2219999 60
2.839 -0.37400001 2.089 66
2.8440001 -0.47099999 1.976 60
2.8499999 -0.55900002 1.87 68
2.848 -0.206 2.22 57
2.8399999 -0.31099999 2.0869999 69
2.849 -0.40599999 1.974 64
2.848 -0.49000001 1.8609999 66
2.849 -0.145 2.2219999 59
2.8469999 -0.248 2.0910001 66
2.8510001 -0.34099999 1.971 62
2.8469999 -0.42199999 1.853 68
2.8610001 -0.083999999 2.2349999 8
2.846 -0.185 2.0899999 72
2.8510001 -0.27500001 1.9680001 63
2.8510001 -0.354 1.85 65
0 0 0 50
2.842 -0.122 2.089 59
2.855 -0.20999999 1.969 59
2.849 -0.287 1.845 71
3.4979999 0.045000002 2.743 69
3.7409999 -0.078000002 2.7509999 73
2.848 -0.145 1.9630001 58
2.849 -0.219 1.841 69
3.497 0.119 2.7490001 69
3.7420001 0.003 2.7550001 75
3.95 -0.111 2.723 64
2.8559999 -0.154 1.8430001 76
3.484 0.193 2.747 69
3.7260001 0.085000001 2.747 72
3.96 -0.022 2.7309999 74
2.8710001 -0.086999997 1.852 7
3.4719999 0.266 2.7460001 69
3.7290001 0.167 2.7550001 73
3.971 0.068000004 2.7409999 75
4.2189999 -0.028999999 2.721 60
3.4630001 0.33899999 2.75 70
3.7179999 0.248 2.7550001 74
3.964 0.15800001 2.74 79
4.1880002 0.068000004 2.7019999 9
3.4519999 0.412 2.7520001 71
3.7049999 0.329 2.7539999 73
3.9619999 0.248 2.7449999 81
4.217 0.169 2.7249999 11
3.4360001 0.484 2.7509999 69
3.7 0.41100001 2.7590001 73
3.954 0.338 2.7460001 82
4.1939998 0.26699999 2.7149999 12
3.424 0.55699998 2.7550001 70
3.6830001 0.491 2.757 71
3.937 0.428 2.743 84
4.1690001 0.36300001 2.7049999 19
3.4070001 0.62699997 2.7550001 69
3.665 0.57099998 2.756 70
0 0 0 50
4.1669998 0.46200001 2.711 21
3.3859999 0.69700003 2.753 70
3.651 0.65100002 2.7579999 73
3.9189999 0.60699999 2.7520001 82
4.1700001 0.56199998 2.7219999 60
3.3740001 0.76899999 2.76 73
3.635 0.73000002 2.76 69
3.902 0.69499999 2.7520001 83
4.1719999 0.66299999 2.7349999 54
3.3510001 0.838 2.7579999 70
3.615 0.80900002 2.7609999 74
3.8940001 0.78600001 2.76 74
4.184 0.76700002 2.756 70
3.3280001 0.90799999 2.7590001 70
3.598 0.889 2.766 74
3.8699999 0.87400001 2.76 75
4.1620002 0.86500001 2.756 73
3.313 0.97899997 2.766 74
3.5739999 0.96700001 2.766 73
3.842 0.95999998 2.757 73
4.145 0.96499997 2.7620001 69
3.2869999 1.046 2.7639999 75
3.546 1.043 2.7650001 75
3.8280001 1.05 2.767 73
4.119 1.061 2.763 72
3.257 1.112 2.7609999 70
3.527 1.1210001 2.7690001 74
3.796 1.1339999 2.763 75
4.086 1.156 2.76 71
3.2349999 1.181 2.766 73
3.497 1.197 2.7690001 72
3.766 1.22 2.7639999 76
4.059 1.253 2.7639999 70
3.2019999 1.245 2.7620001 71
3.461 1.27 2.7639999 73
3.7349999 1.304 2.7639999 75
4.0240002 1.348 2.763 69
3.1760001 1.312 2.7639999 73
3.441 1.348 2.773 74
3.7030001 1.3890001 2.766 75
3.9879999 1.442 2.7639999 71
3.1470001 1.378 2.766 73
3.405 1.4220001 2.7709999 72
3.6600001 1.47 2.7620001 76
0 0 0 50
3.119 1.444 2.77 72
3.3710001 1.495 2.7720001 72
3.635 1.557 2.7709999 75
3.908 1.627 2.7650001 72
3.0829999 1.506 2.766 72
3.3380001 1.568 2.7739999 73
3.592 1.636 2.7679999 72
3.8659999 1.7180001 2.766 72
3.0539999 1.571 2.77 72
3.2980001 1.638 2.7720001 70
3.553 1.7180001 2.7709999 77
3.829 1.812 2.773 71
3.023 1.635 2.7739999 74
3.2590001 1.709 2.7720001 72
3.5139999 1.799 2.7739999 73
3.7809999 1.901 2.7739999 69
2.9790001 1.693 2.767 73
3.2260001 1.783 2.779 72
3.471 1.8789999 2.776 73
3.7279999 1.9859999 2.7720001 69
2.95 1.7589999 2.7739999 74
3.181 1.85 2.776 73
3.4200001 1.954 2.773 76
3.6760001 2.0739999 2.7739999 72
2.9119999 1.8200001 2.7750001 75
3.1370001 1.918 2.7750001 75
3.378 2.0339999 2.779 73
3.625 2.161 2.777 69
2.8729999 1.88 2.776 75
3.0999999 1.989 2.7820001 76
3.3239999 2.1070001 2.776 77
3.566 2.243 2.776 70
2.835 1.939 2.776 76
3.0510001 2.0539999 2.779 73
3.27 2.178 2.7739999 75
3.516 2.329 2.7820001 69
2.7980001 2 2.78 77
3.0050001 2.119 2.78 73
3.22 2.2539999 2.7780001 76
0 0 0 50
2.747 2.052 2.7720001 80
2.96 2.1860001 2.783 74
3.1700001 2.3280001 2.7820001 74
3.3859999 2.484 2.779 70
2.698 2.1029999 2.766 110
2.9130001 2.2520001 2.786 74
3.1129999 2.398 2.7820001 74
3.3280001 2.566 2.7839999 72
2.6440001 2.151 2.756 112
2.8599999 2.313 2.7850001 74
3.0550001 2.467 2.783 73
3.2590001 2.6400001 2.783 69
2.602 2.2090001 2.7590001 109
2.8110001 2.3770001 2.7880001 74
