# .PCD v0.7 - Point Cloud Data file format
VERSION 0.7
FIELDS x y z intensity
SIZE 4 4 4 4
TYPE F F F F
COUNT 1 1 1 1
WIDTH 1676
HEIGHT 1
VIEWPOINT 0 0 0 1 0 0 0
POINTS 1676
DATA ascii
2.845 -0.15899999 2.0580001 71
3.0769999 0.17 2.7579999 79
3.306 0.07 2.7539999 89
3.5420001 -0.026000001 2.747 76
2.865 -0.093000002 2.0710001 14
3.0639999 0.235 2.7539999 78
3.3 0.14300001 2.7550001 85
3.5439999 0.052999999 2.7509999 75
3.799 -0.035 2.7460001 74
3.056 0.29899999 2.757 79
3.2939999 0.215 2.757 85
3.533 0.133 2.7460001 74
3.796 0.052999999 2.7449999 73
3.049 0.36300001 2.7620001 74
3.283 0.28600001 2.7550001 94
3.5320001 0.213 2.7509999 76
3.7980001 0.142 2.75 68
3.0350001 0.426 2.76 81
3.2679999 0.35699999 2.7520001 86
3.529 0.29300001 2.7550001 75
3.7939999 0.23100001 2.7509999 75
3.0220001 0.48899999 2.7609999 76
3.27 0.43000001 2.7639999 87
3.5190001 0.37200001 2.7550001 76
3.7809999 0.31900001 2.747 75
3.01 0.55199999 2.7639999 80
3.2460001 0.49900001 2.7539999 83
3.5020001 0.45100001 2.7509999 73
3.7809999 0.40799999 2.7539999 75
2.9960001 0.61500001 2.766 77
3.2349999 0.56999999 2.7579999 97
3.4949999 0.53100002 2.756 74
3.763 0.49599999 2.7509999 75
2.974 0.67500001 2.7609999 78
3.224 0.63999999 2.7620001 96
3.4749999 0.61000001 2.753 74
3.747 0.58499998 2.7509999 71
2.957 0.73699999 2.763 68
3.2019999 0.70899999 2.7590001 84
3.457 0.68800002 2.7539999 72
3.7360001 0.67299998 2.756 77
2.9389999 0.79799998 2.7639999 80
3.178 0.77700001 2.7550001 86
3.448 0.76700002 2.7609999 76
3.7149999 0.75999999 2.7550001 75
2.9219999 0.85900003 2.767 85
3.1659999 0.84799999 2.763 86
3.4260001 0.84399998 2.7609999 76
3.6960001 0.847 2.756 74
2.9030001 0.91900003 2.7690001 85
3.145 0.91600001 2.763 86
3.4000001 0.92000002 2.7579999 73
3.6760001 0.93400002 2.7590001 74
2.8789999 0.97799999 2.767 86
3.1159999 0.98100001 2.7579999 86
3.378 0.99699998 2.76 74
3.654 1.02 2.7609999 75
2.855 1.0369999 2.767 81
3.1040001 1.053 2.77 92
3.3499999 1.073 2.7579999 74
3.6210001 1.105 2.7579999 74
2.835 1.097 2.7709999 87
3.073 1.118 2.766 83
3.3269999 1.149 2.7620001 74
3.5940001 1.1900001 2.7609999 68
2.809 1.155 2.77 79
3.0450001 1.183 2.7650001 77
3.2980001 1.225 2.7639999 74
3.5650001 1.274 2.7639999 73
2.7809999 1.211 2.7679999 84
3.0179999 1.25 2.767 93
3.2639999 1.2970001 2.7609999 74
3.529 1.357 2.763 74
2.7490001 1.265 2.763 100
2.987 1.313 2.7650001 84
3.2320001 1.37 2.7620001 73
3.4990001 1.441 2.7679999 75
2.7079999 1.3150001 2.75 107
2.957 1.378 2.766 87
3.2090001 1.447 2.7720001 76
3.4590001 1.521 2.767 73
2.6789999 1.37 2.7490001 106
2.931 1.444 2.7720001 90
3.1659999 1.516 2.767 74
3.414 1.599 2.763 68
2.645 1.423 2.7449999 105
2.895 1.506 2.77 87
3.1270001 1.586 2.766 75
3.381 1.683 2.7709999 74
2.619 1.48 2.75 106
2.8610001 1.569 2.7720001 93
3.095 1.659 2.773 76
3.3340001 1.76 2.77 76
2.589 1.534 2.7509999 110
2.8280001 1.631 2.7739999 86
3.0510001 1.727 2.7709999 75
3.2850001 1.835 2.7679999 74
2.5550001 1.586 2.75 105
2.7920001 1.692 2.776 88
3.007 1.793 2.77 73
3.243 1.914 2.7739999 74
2.5220001 1.638 2.75 102
2.743 1.745 2.7650001 97
2.9649999 1.8609999 2.7709999 73
3.194 1.988 2.7750001 75
2.49 1.692 2.753 104
2.6930001 1.7970001 2.7539999 122
2.9219999 1.928 2.7739999 74
3.1329999 2.0550001 2.7679999 77
2.464 1.75 2.763 96
2.6500001 1.853 2.7520001 117
2.872 1.99 2.7709999 74
3.0899999 2.1340001 2.7780001 74
2.427 1.8 2.7620001 87
2.6110001 1.9119999 2.7550001 118
2.8299999 2.059 2.7780001 75
3.026 2.1989999 2.7709999 70
2.4030001 1.86 2.777 93
2.5680001 1.967 2.7550001 118
2.776 2.119 2.7750001 74
2.977 2.273 2.7780001 74
2.3699999 1.915 2.7839999 87
2.5220001 2.0209999 2.7539999 117
2.711 2.1689999 2.7609999 99
2.921 2.3429999 2.783 73
2.332 1.964 2.7839999 84
2.4860001 2.0829999 2.7639999 108
2.651 2.2219999 2.753 85
2.862 2.4089999 2.7839999 74
2.29 2.0109999 2.7820001 87
2.4419999 2.138 2.767 98
2.6059999 2.2869999 2.7620001 99
2.79 2.4649999 2.7750001 75
2.2550001 2.0639999 2.7880001 82
2.4059999 2.2 2.779 104
2.566 2.358 2.78 74
2.734 2.533 2.783 72
2.207 2.1059999 2.7820001 84
2.358 2.253 2.78 86
2.5120001 2.4159999 2.7820001 74
2.6659999 2.5910001 2.7809999 74
2.1670001 2.155 2.7850001 79
2.3110001 2.3069999 2.7839999 92
2.454 2.4719999 2.783 74
2.602 2.6530001 2.7839999 73
2.1270001 2.2049999 2.79 90
2.26 2.3570001 2.7850001 93
2.3959999 2.526 2.7839999 73
2.5320001 2.7079999 2.7820001 73
2.082 2.25 2.79 82
2.204 2.401 2.78 84
2.336 2.5799999 2.786 73
2.464 2.7639999 2.7839999 73
2.0350001 2.2909999 2.7850001 86
2.155 2.4530001 2.7850001 94
2.276 2.631 2.7880001 74
2.392 2.816 2.783 74
1.993 2.3410001 2.7920001 85
2.102 2.5 2.786 92
2.2130001 2.6789999 2.7869999 74
2.3210001 2.869 2.786 67
1.9450001 2.382 2.79 85
2.0439999 2.5420001 2.7820001 86
2.1530001 2.7309999 2.7909999 74
2.25 2.921 2.789 72
1.896 2.4230001 2.79 83
1.995 2.595 2.793 89
2.0869999 2.776 2.7909999 72
2.178 2.9719999 2.7920001 72
1.8150001 2.421 2.74 107
1.937 2.6370001 2.7909999 83
2.0179999 2.8169999 2.7869999 73
2.1010001 3.0150001 2.79 66
1.678 2.3380001 2.6040001 64
1.874 2.6719999 2.783 85
1.9529999 2.862 2.79 74
2.0250001 3.059 2.7920001 73
1.627 2.3699999 2.598 61
1.705 2.5480001 2.615 107
1.887 2.905 2.7909999 74
1.948 3.1010001 2.7920001 72
1.7 2.589 2.7950001 82
1.643 2.575 2.605 81
1.737 2.813 2.6670001 60
1.87 3.141 2.793 71
1.65 2.6300001 2.7980001 84
1.701 2.7980001 2.7920001 89
1.632 2.7839999 2.6059999 50
1.663 2.95 2.5929999 75
1.596 2.665 2.7950001 85
1.643 2.8399999 2.7969999 85
1.681 3.0239999 2.796 77
1.689 3.171 2.757 64
1.543 2.7030001 2.7969999 83
1.579 2.8740001 2.7939999 83
1.608 3.0580001 2.7950001 73
1.632 3.2490001 2.796 66
1.487 2.7360001 2.7950001 83
1.515 2.9059999 2.793 84
1.539 3.0940001 2.799 73
1.554 3.2880001 2.803 73
1.431 2.7690001 2.7939999 83
1.4529999 2.9430001 2.796 85
1.4630001 3.1199999 2.7939999 72
1.467 3.3069999 2.7950001 75
1.378 2.8080001 2.7980001 86
1.388 2.974 2.7950001 84
1.392 3.1530001 2.7969999 73
1.388 3.3399999 2.8 77
1.322 2.8429999 2.8010001 76
1.325 3.0090001 2.799 84
1.3200001 3.1849999 2.8010001 73
1.304 3.3610001 2.7980001 76
1.263 2.8729999 2.799 79
1.26 3.0380001 2.8 87
1.244 3.2079999 2.799 73
1.219 3.3789999 2.7950001 62
1.207 2.9070001 2.803 82
1.193 3.066 2.799 86
1.165 3.221 2.789 55
1.133 3.3929999 2.7909999 76
1.145 2.931 2.7980001 79
1.125 3.0910001 2.7980001 85
1.094 3.2579999 2.802 74
1.045 3.398 2.78 68
1.085 2.9590001 2.7969999 87
1.057 3.1170001 2.8 89
1.0190001 3.279 2.802 73
0.949 3.3699999 2.744 68
1.026 2.9909999 2.8010001 88
0.98900002 3.1389999 2.7980001 84
0.94099998 3.2939999 2.799 74
0.85500002 3.335 2.7049999 66
0.96499997 3.017 2.8010001 88
0.92000002 3.1600001 2.7969999 86
0.86699998 3.3169999 2.803 72
0.764 3.3080001 2.675 63
0.90200001 3.039 2.7980001 85
0.852 3.184 2.8 91
0.79000002 3.3310001 2.802 73
0.671 3.2550001 2.625 66
0.83899999 3.063 2.7980001 88
0.78200001 3.204 2.8010001 90
0.71200001 3.346 2.8039999 73
0.58899999 3.2479999 2.6140001 66
0.77499998 3.082 2.7950001 90
0.70999998 3.217 2.796 82
0.63499999 3.358 2.8050001 72
0.509 3.2420001 2.6059999 70
0.71200001 3.1110001 2.8010001 76
0.63999999 3.237 2.8 89
0.55699998 3.365 2.8010001 72
0.43000001 3.243 2.6040001 68
0.648 3.1329999 2.803 88
0.56900001 3.25 2.7980001 87
0.479 3.3729999 2.802 73
0.352 3.247 2.6070001 66
0.58200002 3.152 2.803 84
0.498 3.2650001 2.799 94
0.403 3.3859999 2.806 75
0.27500001 3.2490001 2.609 70
0.51700002 3.1700001 2.803 87
0.42699999 3.283 2.8050001 92
0.324 3.3829999 2.8010001 73
0.197 3.24 2.6040001 47
0.44999999 3.1900001 2.8050001 92
0.35499999 3.2950001 2.8069999 89
0.24600001 3.3870001 2.8010001 73
0.12 3.2409999 2.609 71
0.38299999 3.2049999 2.8050001 91
0.28200001 3.299 2.803 91
0.169 3.3900001 2.803 73
0.043000001 3.234 2.6099999 73
0.315 3.22 2.8050001 90
0.20900001 3.3039999 2.8 63
0.090999998 3.3870001 2.8010001 80
-0.033 3.2320001 2.6159999 93
0.24699999 3.2360001 2.8080001 95
0.13600001 3.3150001 2.8050001 85
0.014 3.381 2.799 80
-0.11 3.2509999 2.6400001 79
0.178 3.2490001 2.8099999 61
0.063000001 3.3180001 2.8039999 85
-0.063000001 3.381 2.803 78
-0.19400001 3.3840001 2.757 65
0.109 3.247 2.799 86
-0.0089999996 3.3199999 2.8039999 85
-0.14 3.3729999 2.8010001 76
-0.27700001 3.411 2.7920001 66
0.039000001 3.2679999 2.8099999 92
-0.082999997 3.325 2.8080001 86
-0.21600001 3.3670001 2.802 73
-0.35800001 3.404 2.8010001 78
-0.029999999 3.2720001 2.8069999 89
-0.156 3.3180001 2.803 85
-0.29300001 3.3610001 2.806 79
-0.43700001 3.388 2.803 86
-0.1 3.2709999 2.8010001 81
-0.23 3.323 2.809 81
-0.36899999 3.349 2.8050001 72
-0.514 3.3610001 2.799 80
-0.171 3.2780001 2.8039999 89
-0.30399999 3.3180001 2.8080001 82
-0.44499999 3.3340001 2.8039999 72
-0.59299999 3.3469999 2.806 76
-0.242 3.28 2.803 86
-0.37599999 3.303 2.8 86
-0.52100003 3.323 2.806 73
-0.66900003 3.3169999 2.802 78
-0.31299999 3.2780001 2.8 87
-0.45100001 3.306 2.809 78
-0.59600002 3.3069999 2.8069999 72
-0.745 3.2920001 2.802 80
-0.38600001 3.29 2.8110001 87
-0.52399999 3.293 2.8050001 83
-0.66900003 3.283 2.802 72
-0.81900001 3.263 2.8010001 61
-0.45899999 3.2880001 2.8099999 86
-0.597 3.2809999 2.8039999 85
-0.74400002 3.2690001 2.8080001 71
-0.89300001 3.2349999 2.802 78
-0.53100002 3.2809999 2.8080001 85
-0.671 3.273 2.809 87
-0.81699997 3.2449999 2.806 66
-0.96499997 3.2030001 2.802 77
-0.60399997 3.283 2.813 87
-0.745 3.2609999 2.809 82
-0.889 3.221 2.8050001 72
-1.036 3.1689999 2.8010001 80
-0.67699999 3.2739999 2.8110001 90
-0.81599998 3.24 2.8050001 66
-0.963 3.201 2.809 71
-1.1059999 3.1289999 2.7969999 74
-0.74800003 3.2609999 2.8080001 78
-0.88999999 3.2279999 2.8099999 86
-1.033 3.171 2.806 76
-1.177 3.098 2.8010001 78
-0.82200003 3.2520001 2.8080001 66
-0.96100003 3.207 2.8069999 83
-1.102 3.138 2.8010001 71
-1.2460001 3.0639999 2.803 74
-0.89499998 3.2420001 2.8099999 92
-1.0319999 3.1819999 2.8039999 87
-1.169 3.1029999 2.796 76
-1.311 3.0190001 2.7980001 77
-0.96600002 3.2219999 2.803 84
-1.104 3.1619999 2.806 82
-1.238 3.0710001 2.796 76
-1.376 2.977 2.7969999 73
-1.041 3.2130001 2.809 79
-1.176 3.142 2.809 82
-1.307 3.04 2.7980001 74
-1.442 2.9400001 2.8010001 76
-1.113 3.194 2.8069999 77
-1.243 3.108 2.8010001 86
-1.375 3.0090001 2.8 75
-1.505 2.895 2.799 81
-1.1849999 3.175 2.806 80
-1.3150001 3.0880001 2.8069999 82
-1.4400001 2.971 2.7969999 71
-1.563 2.845 2.793 75
-1.257 3.1559999 2.806 77
-1.3839999 3.0569999 2.8050001 83
-1.506 2.9360001 2.799 72
-1.6289999 2.809 2.802 78
-1.331 3.1370001 2.809 80
-1.45 3.023 2.8010001 84
-1.572 2.8989999 2.8010001 71
-1.686 2.7579999 2.7980001 77
-1.401 3.109 2.806 79
-1.5190001 2.993 2.803 78
-1.633 2.8570001 2.799 70
-1.7410001 2.7049999 2.7920001 76
-1.472 3.0829999 2.8039999 80
-1.585 2.9560001 2.8 82
-1.696 2.816 2.799 75
-1.8 2.6600001 2.7969999 79
-1.544 3.056 2.8050001 80
-1.651 2.921 2.799 82
-1.758 2.7750001 2.8 70
-1.854 2.608 2.7950001 78
-1.613 3.0250001 2.803 80
-1.719 2.888 2.803 83
-1.8150001 2.7260001 2.796 69
-1.91 2.5610001 2.7980001 78
-1.6849999 2.9979999 2.8050001 78
-1.784 2.848 2.8010001 79
-1.872 2.678 2.7920001 70
-1.9630001 2.5090001 2.799 77
-1.753 2.9619999 2.802 78
-1.845 2.806 2.7980001 79
-1.932 2.6340001 2.7950001 75
-2.0139999 2.4560001 2.799 75
-1.822 2.9260001 2.8010001 77
-1.911 2.7679999 2.8010001 85
-1.985 2.5829999 2.7909999 75
-2.05 2.385 2.779 72
-1.8940001 2.8970001 2.8069999 81
-1.972 2.723 2.799 82
-2.039 2.5320001 2.789 69
-1.974 2.194 2.6159999 64
-1.959 2.8540001 2.802 80
-2.033 2.6789999 2.799 81
-1.962 2.3269999 2.615 95
-1.992 2.115 2.5829999 41
-2.026 2.813 2.8 81
-1.952 2.4560001 2.6099999 68
-1.9859999 2.2509999 2.582 40
-2.1860001 2.217 2.776 77
-1.978 2.6210001 2.6470001 58
-1.988 2.3889999 2.5840001 39
-2.187 2.368 2.776 111
-2.2449999 2.1760001 2.796 75
-1.998 2.527 2.592 41
-2.2090001 2.536 2.7950001 81
-2.2520001 2.3310001 2.7939999 69
-2.2869999 2.118 2.796 77
-2.22 2.6819999 2.7969999 80
-2.2679999 2.4879999 2.7969999 84
-2.2980001 2.2739999 2.79 69
-2.325 2.0569999 2.793 75
-2.286 2.638 2.799 80
-2.3239999 2.437 2.7969999 76
-2.3440001 2.2160001 2.7880001 69
-2.368 2.0020001 2.7969999 76
-2.349 2.5910001 2.799 81
-2.375 2.381 2.793 79
-2.392 2.1619999 2.79 67
-2.405 1.941 2.7950001 73
-2.4089999 2.539 2.796 78
-2.434 2.3329999 2.799 88
-2.4360001 2.1040001 2.789 68
-2.437 1.878 2.7909999 76
-2.471 2.4879999 2.796 78
-2.484 2.2750001 2.7950001 77
-2.474 2.0420001 2.7820001 72
-2.4779999 1.821 2.7969999 75
-2.5280001 2.4330001 2.793 76
-2.5320001 2.2160001 2.793 76
-2.5190001 1.9859999 2.786 74
-2.5079999 1.758 2.7939999 76
-2.5829999 2.3759999 2.789 78
-2.5829999 2.1600001 2.793 81
-2.5580001 1.925 2.7850001 70
-2.5369999 1.6950001 2.79 76
-2.6440001 2.322 2.7920001 77
-2.6300001 2.0999999 2.7920001 76
-2.596 1.863 2.7820001 68
-2.5710001 1.635 2.7950001 81
-2.6989999 2.2650001 2.7920001 76
-2.677 2.04 2.7909999 80
-2.638 1.8049999 2.7869999 74
-2.595 1.5700001 2.79 82
-2.753 2.2049999 2.7909999 82
-2.7219999 1.979 2.7909999 87
-2.6719999 1.7410001 2.7839999 74
-2.6210001 1.507 2.7880001 80
-2.79 2.132 2.7739999 91
-2.7679999 1.918 2.7920001 102
-2.7090001 1.6799999 2.786 76
-2.6489999 1.4450001 2.79 81
-2.852 2.0769999 2.7839999 88
-2.7850001 1.8380001 2.766 101
-2.7420001 1.617 2.786 79
-2.6719999 1.381 2.7880001 81
-2.885 2.003 2.767 118
-2.825 1.774 2.7650001 110
-2.7780001 1.5549999 2.789 97
-2.691 1.316 2.7850001 78
-2.9389999 1.942 2.7709999 118
-2.8629999 1.709 2.7639999 113
-2.7820001 1.476 2.763 98
-2.7160001 1.255 2.7880001 83
-2.987 1.876 2.7709999 127
-2.895 1.64 2.757 135
-2.802 1.408 2.7550001 97
-2.733 1.1900001 2.7850001 88
-3.013 1.798 2.7539999 115
-2.9330001 1.575 2.7590001 126
-2.8429999 1.35 2.7679999 107
-2.7509999 1.126 2.7850001 93
-3.0840001 1.745 2.7780001 83
-2.9760001 1.512 2.767 125
-2.862 1.281 2.7609999 111
-2.766 1.062 2.7820001 103
-3.138 1.681 2.7880001 81
-3.0020001 1.4400001 2.7590001 130
-2.882 1.214 2.757 127
-2.776 0.99599999 2.777 97
-3.171 1.6059999 2.78 77
-3.0220001 1.367 2.7490001 137
-2.9000001 1.145 2.7520001 147
-2.7980001 0.935 2.7839999 94
-3.214 1.535 2.783 76
-3.066 1.304 2.7620001 121
-2.9170001 1.0779999 2.7479999 124
-2.812 0.87099999 2.7850001 85
-3.2539999 1.4630001 2.7850001 80
-3.1099999 1.24 2.776 93
-2.9549999 1.018 2.7650001 77
-2.8239999 0.80800003 2.7850001 88
-3.2839999 1.386 2.78 81
-3.142 1.171 2.78 87
-2.987 0.95499998 2.7780001 78
-2.826 0.74199998 2.776 78
-3.3169999 1.3099999 2.779 81
-3.164 1.098 2.7780001 87
-3.0020001 0.88599998 2.776 74
-2.839 0.67900002 2.78 80
-3.352 1.235 2.7809999 81
-3.187 1.025 2.777 91
-3.0150001 0.81800002 2.7739999 78
-2.8440001 0.61500001 2.777 85
-3.3740001 1.155 2.7750001 76
-3.2090001 0.95200002 2.777 90
-3.0309999 0.75 2.7750001 76
-2.848 0.55199999 2.7750001 89
-3.4059999 1.079 2.7780001 78
-3.2260001 0.87800002 2.7739999 85
-3.0369999 0.68000001 2.77 80
-2.8559999 0.48899999 2.7780001 90
-3.425 0.99800003 2.773 79
-3.24 0.80299997 2.7709999 88
-3.0510001 0.61199999 2.773 81
-2.8570001 0.426 2.7750001 94
-3.4460001 0.91799998 2.7709999 80
-3.26 0.72899997 2.7739999 85
-3.059 0.54400003 2.7709999 74
-2.8559999 0.36199999 2.7720001 83
-3.4660001 0.83700001 2.7679999 78
-3.2720001 0.65399998 2.7720001 90
-3.062 0.47400001 2.7679999 76
-2.862 0.301 2.777 94
-3.4909999 0.75700003 2.773 82
-3.276 0.57800001 2.7639999 93
-3.0710001 0.40599999 2.77 76
-2.8800001 0.23999999 2.793 150
-3.4960001 0.67299998 2.7620001 79
-3.2880001 0.50300002 2.7650001 91
-3.072 0.338 2.767 86
-2.8559999 0.176 2.7709999 83
-3.5179999 0.59299999 2.767 78
-3.2980001 0.428 2.766 91
-3.076 0.26899999 2.7679999 72
-2.858 0.115 2.7750001 92
-3.5280001 0.50999999 2.7639999 76
-3.303 0.35299999 2.7639999 90
-3.076 0.20100001 2.767 79
-2.849 0.052999999 2.77 95
-3.5309999 0.426 2.757 78
-3.3099999 0.27700001 2.7650001 91
-3.0739999 0.132 2.7639999 83
-2.8410001 -0.0070000002 2.767 89
-3.546 0.34400001 2.7620001 76
-3.313 0.20100001 2.7639999 86
-3.0680001 0.064000003 2.76 78
-2.8399999 -0.067000002 2.7709999 94
-3.552 0.26100001 2.7609999 75
-3.312 0.125 2.7620001 92
-3.0710001 -0.003 2.7650001 79
-2.8310001 -0.12800001 2.7690001 98
-3.5539999 0.177 2.7590001 77
-3.3139999 0.050000001 2.7639999 94
-3.063 -0.071000002 2.7620001 80
-2.8199999 -0.18700001 2.766 88
-3.5569999 0.093999997 2.7590001 77
-3.313 -0.024 2.7650001 91
-3.0580001 -0.138 2.7620001 81
-2.812 -0.24699999 2.7679999 93
-3.552 0.0099999998 2.7550001 77
-3.302 -0.1 2.7579999 90
-3.05 -0.205 2.7620001 76
-2.802 -0.30599999 2.7679999 100
-3.55 -0.071999997 2.7550001 75
-3.3039999 -0.175 2.7639999 84
-3.039 -0.27200001 2.76 87
-2.7909999 -0.36500001 2.7690001 87
-3.55 -0.156 2.7579999 80
-3.2920001 -0.25 2.7609999 91
-3.029 -0.338 2.7590001 84
-2.7820001 -0.42399999 2.7720001 98
-3.539 -0.23899999 2.7539999 78
-3.276 -0.324 2.7550001 98
-3.0179999 -0.405 2.7609999 78
-2.7620001 -0.48100001 2.7650001 101
-3.5250001 -0.322 2.75 78
-3.2690001 -0.39899999 2.7579999 96
-3.0009999 -0.47 2.757 92
-2.7420001 -0.537 2.76 108
-3.5220001 -0.405 2.7550001 76
-3.257 -0.47400001 2.7590001 95
-2.961 -0.52999997 2.733 133
-2.73 -0.59500003 2.7639999 106
-3.5050001 -0.48699999 2.7520001 78
-3.234 -0.546 2.7520001 92
-2.9489999 -0.59600002 2.7360001 148
-2.7160001 -0.65200001 2.7650001 104
-3.49 -0.56900001 2.7520001 78
-3.2219999 -0.62 2.756 90
-2.9289999 -0.65899998 2.7320001 147
-2.694 -0.70700002 2.7609999 88
-3.477 -0.65200001 2.756 76
-3.201 -0.69199997 2.753 92
-2.9070001 -0.72100002 2.7290001 135
-2.6760001 -0.76200002 2.7609999 93
-3.4530001 -0.73199999 2.7509999 79
-3.181 -0.764 2.753 88
-2.8889999 -0.78500003 2.7309999 133
-2.6530001 -0.81699997 2.7579999 99
-3.425 -0.81199998 2.7460001 80
-3.1600001 -0.83600003 2.753 88
-2.862 -0.84500003 2.7260001 118
-2.631 -0.87099999 2.757 95
-3.4030001 -0.89200002 2.7479999 75
-3.1359999 -0.90600002 2.7520001 93
-2.8410001 -0.90700001 2.7260001 120
-2.6070001 -0.92299998 2.753 81
-3.3740001 -0.97000003 2.7449999 76
-3.0969999 -0.97299999 2.7390001 113
-2.822 -0.97000003 2.73 114
-2.5810001 -0.97500002 2.7490001 90
-3.3469999 -1.048 2.7449999 80
-3.063 -1.039 2.733 131
-2.7980001 -1.031 2.7320001 114
-2.5569999 -1.028 2.7490001 91
-3.3180001 -1.126 2.7460001 79
-3.026 -1.105 2.7249999 134
-2.7739999 -1.091 2.733 116
-2.5350001 -1.081 2.75 90
-3.2820001 -1.202 2.743 77
-2.9960001 -1.1720001 2.7249999 124
-2.7509999 -1.153 2.7379999 102
-2.506 -1.13 2.747 95
-3.2479999 -1.277 2.7420001 78
-2.9649999 -1.239 2.7249999 128
-2.7279999 -1.214 2.743 98
-2.4790001 -1.181 2.7449999 87
-3.214 -1.352 2.743 79
-2.934 -1.3049999 2.7260001 133
-2.7 -1.273 2.7449999 92
-2.4549999 -1.233 2.7479999 93
-3.1760001 -1.426 2.744 78
-2.891 -1.3660001 2.7179999 119
-2.6689999 -1.331 2.7460001 87
-2.424 -1.281 2.744 84
-3.1289999 -1.495 2.737 79
-2.859 -1.432 2.7219999 116
-2.6340001 -1.386 2.7420001 88
-2.3929999 -1.329 2.7409999 90
-3.073 -1.559 2.724 118
-2.8239999 -1.495 2.723 116
-2.596 -1.439 2.7379999 83
-2.368 -1.38 2.7460001 93
-3.023 -1.625 2.7179999 142
-2.7839999 -1.557 2.723 114
-2.566 -1.4960001 2.7420001 87
-2.3340001 -1.426 2.7420001 88
-2.97 -1.688 2.71 122
-2.7550001 -1.625 2.733 105
-2.5250001 -1.548 2.737 85
-2.3039999 -1.474 2.7420001 90
-2.9449999 -1.768 2.73 90
-2.723 -1.6900001 2.743 91
-2.487 -1.6 2.7349999 79
-2.273 -1.521 2.743 91
-2.9070001 -1.84 2.74 79
-2.6760001 -1.747 2.7390001 79
-2.454 -1.655 2.74 87
-2.2409999 -1.567 2.743 90
-2.849 -1.899 2.7320001 86
-2.635 -1.808 2.743 89
-2.414 -1.706 2.7390001 86
-2.1989999 -1.6059999 2.733 124
-2.803 -1.966 2.737 94
-2.5840001 -1.8609999 2.737 82
-2.3699999 -1.755 2.7349999 83
-2.1099999 -1.609 2.664 136
-2.7460001 -2.026 2.7349999 80
-2.5350001 -1.915 2.7349999 90
-2.335 -1.808 2.7409999 85
-1.993 -1.586 2.5569999 53
-2.6889999 -2.0829999 2.7309999 80
-2.49 -1.972 2.74 86
-2.289 -1.854 2.737 86
-1.944 -1.614 2.5369999 55
-2.635 -2.1440001 2.734 77
-2.4389999 -2.023 2.737 82
-2.2420001 -1.898 2.7309999 97
-1.966 -1.702 2.6110001 150
-2.5780001 -2.2019999 2.7349999 86
-2.3840001 -2.0710001 2.7320001 83
-2.1919999 -1.939 2.724 148
-1.955 -1.7640001 2.6429999 108
-2.516 -2.2539999 2.7309999 87
-2.3340001 -2.1240001 2.7349999 83
-2.1210001 -1.96 2.6889999 57
-1.987 -1.869 2.7379999 91
-2.4530001 -2.3050001 2.7279999 85
-2.2820001 -2.174 2.7360001 85
-1.957 -1.8890001 2.5350001 52
-1.949 -1.91 2.7390001 95
-2.392 -2.3559999 2.7279999 95
-2.2249999 -2.2190001 2.7320001 90
-1.965 -1.9809999 2.6029999 150
-1.909 -1.949 2.7379999 98
-2.3269999 -2.405 2.727 88
-2.0940001 -2.1849999 2.6359999 111
-2.013 -2.1210001 2.73 93
-1.869 -1.989 2.7379999 96
-2.2679999 -2.457 2.7309999 87
-1.9579999 -2.1389999 2.5309999 51
-1.966 -2.1630001 2.7309999 87
-1.825 -2.0239999 2.733 99
-2.1900001 -2.4879999 2.7149999 75
-1.9859999 -2.2720001 2.638 150
-1.9170001 -2.2030001 2.7309999 85
-1.786 -2.0650001 2.7360001 97
-1.987 -2.369 2.54 56
-1.999 -2.3940001 2.7320001 89
-1.865 -2.2409999 2.7279999 95
-1.742 -2.0999999 2.734 95
-1.984 -2.483 2.618 57
-1.9400001 -2.434 2.7309999 72
-1.814 -2.2780001 2.727 87
-1.7 -2.138 2.7360001 96
-2 -2.6289999 2.7279999 93
-1.8789999 -2.47 2.7279999 86
-1.767 -2.3199999 2.733 87
-1.655 -2.171 2.733 95
-1.929 -2.665 2.7249999 90
-1.821 -2.5109999 2.7320001 89
-1.712 -2.3540001 2.7309999 89
-1.6109999 -2.207 2.734 92
-1.8609999 -2.704 2.7279999 84
-1.757 -2.543 2.7279999 88
-1.659 -2.388 2.7290001 90
-1.5650001 -2.2390001 2.7320001 94
-1.783 -2.7249999 2.714 64
-1.694 -2.576 2.7260001 86
-1.6059999 -2.421 2.7290001 93
-1.52 -2.2720001 2.7320001 93
-1.714 -2.7620001 2.7179999 91
-1.635 -2.6129999 2.7309999 93
-1.551 -2.4530001 2.7279999 89
-1.474 -2.3050001 2.7320001 94
-1.648 -2.8010001 2.7260001 100
-1.571 -2.642 2.7290001 88
-1.497 -2.4849999 2.7279999 86
-1.426 -2.335 2.73 92
-1.571 -2.8199999 2.717 98
-1.5039999 -2.6659999 2.7219999 84
-1.442 -2.516 2.7290001 86
-1.378 -2.3640001 2.7290001 93
-1.475 -2.803 2.674 121
-1.443 -2.6989999 2.7279999 90
-1.385 -2.5439999 2.7279999 82
-1.33 -2.3940001 2.7290001 95
-1.369 -2.757 2.608 121
-1.378 -2.7249999 2.727 86
-1.329 -2.573 2.7290001 84
-1.283 -2.4260001 2.733 89
-1.265 -2.7060001 2.539 62
-1.309 -2.7409999 2.7190001 88
-1.27 -2.595 2.7249999 79
-1.23 -2.448 2.7260001 91
-1.1849999 -2.7 2.5150001 57
-1.245 -2.7679999 2.7219999 87
-1.214 -2.6229999 2.7279999 84
-1.1799999 -2.474 2.724 89
-1.1160001 -2.7160001 2.513 52
-1.1799999 -2.789 2.7219999 91
-1.155 -2.6440001 2.7249999 86
-1.131 -2.5050001 2.7290001 87
-1.049 -2.733 2.5139999 48
-1.115 -2.812 2.7249999 88
-1.098 -2.6689999 2.727 79
-1.08 -2.529 2.7279999 87
-0.98400003 -2.756 2.5220001 46
-1.048 -2.8280001 2.723 93
-1.0369999 -2.687 2.724 83
-1.028 -2.553 2.7279999 86
-0.92400002 -2.7950001 2.546 48
-0.97500002 -2.8269999 2.7049999 148
-0.97500002 -2.7 2.7160001 71
-0.977 -2.579 2.73 85
-0.85500002 -2.806 2.5469999 50
-0.89700001 -2.8050001 2.6700001 150
-0.91900003 -2.7279999 2.7249999 86
-0.92299998 -2.5969999 2.7249999 90
-0.77600002 -2.779 2.5150001 40
-0.81599998 -2.767 2.6210001 150
-0.86000001 -2.747 2.727 84
-0.86900002 -2.618 2.7249999 83
-0.72799999 -2.8659999 2.5869999 52
-0.736 -2.7190001 2.5650001 150
-0.796 -2.7520001 2.7149999 71
-0.81599998 -2.6389999 2.7249999 85
-0.65700001 -2.868 2.5829999 49
-0.667 -2.7060001 2.5439999 141
-0.73699999 -2.7720001 2.7190001 70
-0.75999999 -2.6530001 2.7190001 53
-0.588 -2.8759999 2.5869999 49
-0.60000002 -2.6989999 2.529 95
-0.676 -2.783 2.717 78
-0.70599997 -2.675 2.7219999 87
-0.51800001 -2.878 2.5869999 48
-0.537 -2.701 2.5250001 88
-0.61500001 -2.796 2.7179999 70
-0.653 -2.698 2.7290001 86
-0.449 -2.8800001 2.589 50
-0.47400001 -2.701 2.52 79
-0.55299997 -2.8069999 2.7179999 76
-0.59600002 -2.7079999 2.723 92
-0.37599999 -2.849 2.563 49
-0.41100001 -2.7 2.516 69
-0.49200001 -2.8180001 2.7190001 75
-0.53899997 -2.72 2.7190001 86
-0.31099999 -2.8729999 2.5880001 50
-0.35100001 -2.714 2.526 88
-0.43000001 -2.825 2.717 74
-0.48300001 -2.7390001 2.724 87
-0.242 -2.8640001 2.5829999 51
-0.28799999 -2.707 2.5179999 83
-0.36899999 -2.8329999 2.7179999 77
-0.426 -2.7509999 2.7219999 90
-0.17399999 -2.8510001 2.5780001 51
-0.227 -2.7179999 2.529 93
-0.30599999 -2.8329999 2.7119999 86
-0.36899999 -2.76 2.7190001 87
-0.107 -2.8239999 2.5610001 52
-0.16500001 -2.7049999 2.5190001 80
-0.243 -2.826 2.701 93
-0.31099999 -2.7739999 2.7219999 85
-0.039999999 -2.7839999 2.533 48
-0.104 -2.697 2.5150001 79
-0.182 -2.8269999 2.6989999 113
-0.25299999 -2.779 2.7179999 88
0.024 -2.74 2.503 45
-0.043000001 -2.6989999 2.5209999 89
-0.12 -2.8310001 2.701 116
-0.19499999 -2.789 2.7190001 84
0.086999997 -2.7309999 2.507 41
0.017000001 -2.7 2.527 98
-0.059 -2.826 2.6960001 120
-0.13699999 -2.8069999 2.7290001 91
0.15000001 -2.7079999 2.4990001 48
0.077 -2.691 2.5250001 92
0.0020000001 -2.8369999 2.707 101
-0.077 -2.8 2.7160001 81
0.213 -2.71 2.5150001 64
0.13699999 -2.678 2.5220001 85
0.064000003 -2.839 2.71 83
-0.017999999 -2.8110001 2.7219999 96
0.27599999 -2.71 2.53 107
0.198 -2.6800001 2.5320001 102
0.126 -2.8410001 2.7149999 75
0.039999999 -2.822 2.7279999 96
0.336 -2.677 2.517 80
0.26499999 -2.7520001 2.612 150
0.18700001 -2.8340001 2.7130001 75
0.1 -2.819 2.724 94
0.41100001 -2.7539999 2.609 150
0.34 -2.855 2.7219999 98
0.249 -2.8269999 2.7130001 54
0.16 -2.819 2.721 90
0.49200001 -2.849 2.72 97
0.403 -2.8399999 2.723 98
0.31 -2.8169999 2.71 76
0.22 -2.812 2.7149999 36
0.55500001 -2.822 2.717 100
0.465 -2.819 2.7179999 85
0.37200001 -2.816 2.717 75
0.28099999 -2.8210001 2.724 91
0.61699998 -2.7950001 2.7149999 88
0.52700001 -2.8039999 2.721 97
0.43200001 -2.8010001 2.7119999 77
0.34099999 -2.816 2.7219999 92
0.68000001 -2.7739999 2.721 88
0.588 -2.786 2.7219999 89
0.493 -2.7909999 2.7130001 78
0.403 -2.819 2.7279999 91
0.74000001 -2.743 2.7190001 86
0.648 -2.763 2.7190001 91
0.55400002 -2.7820001 2.717 75
0.46200001 -2.8080001 2.7219999 98
0.79699999 -2.7060001 2.711 81
0.70899999 -2.7449999 2.723 92
0.61400002 -2.7650001 2.714 79
0.52200001 -2.796 2.717 90
0.85699999 -2.6819999 2.7179999 80
0.76800001 -2.72 2.721 96
0.67400002 -2.7509999 2.7149999 77
0.58499998 -2.7969999 2.7249999 96
0.91299999 -2.645 2.7119999 84
0.82599998 -2.694 2.7190001 89
0.736 -2.74 2.72 73
0.64399999 -2.7820001 2.7190001 93
0.97000003 -2.6129999 2.714 81
0.88499999 -2.6719999 2.723 89
0.79400003 -2.7179999 2.7160001 78
0.70599997 -2.776 2.723 92
1.027 -2.585 2.7190001 83
0.94099998 -2.642 2.7190001 89
0.85100001 -2.694 2.711 81
0.76700002 -2.766 2.7249999 99
1.082 -2.552 2.721 83
0.99400002 -2.6070001 2.711 82
0.91100001 -2.678 2.7149999 77
0.82599998 -2.7490001 2.721 98
1.133 -2.5109999 2.7160001 87
1.052 -2.5840001 2.7179999 81
0.96899998 -2.6570001 2.7160001 78
0.88599998 -2.7309999 2.717 93
1.186 -2.477 2.7190001 79
1.1059999 -2.553 2.7160001 84
1.025 -2.6300001 2.7119999 79
0.94700003 -2.72 2.721 98
1.235 -2.4360001 2.7149999 84
1.1619999 -2.5250001 2.7190001 87
1.084 -2.6129999 2.7179999 76
1.007 -2.7 2.7190001 100
1.2819999 -2.3929999 2.71 83
1.214 -2.493 2.7190001 82
1.138 -2.582 2.7130001 80
1.066 -2.6800001 2.717 99
1.3329999 -2.358 2.7160001 82
1.266 -2.4590001 2.7179999 84
1.193 -2.5539999 2.71 74
1.13 -2.671 2.7279999 95
1.38 -2.316 2.7149999 82
1.316 -2.4230001 2.7160001 83
1.252 -2.533 2.7179999 78
1.188 -2.6459999 2.724 90
1.425 -2.273 2.7130001 81
1.368 -2.3900001 2.7190001 85
1.308 -2.506 2.72 77
1.2460001 -2.6210001 2.721 87
1.473 -2.2360001 2.7179999 82
1.419 -2.3570001 2.7219999 83
1.36 -2.471 2.7149999 82
1.306 -2.5999999 2.724 94
1.515 -2.1900001 2.7149999 81
1.4680001 -2.319 2.7219999 84
1.416 -2.4449999 2.72 74
1.365 -2.5739999 2.724 89
1.557 -2.1470001 2.7149999 77
1.515 -2.2809999 2.721 88
1.4680001 -2.4119999 2.72 77
1.421 -2.5439999 2.72 88
1.597 -2.102 2.714 84
1.561 -2.2409999 2.72 86
1.518 -2.3759999 2.717 83
1.483 -2.5239999 2.73 95
1.64 -2.0599999 2.7179999 83
1.607 -2.2019999 2.721 84
1.573 -2.345 2.721 78
1.536 -2.487 2.721 85
1.678 -2.0139999 2.717 84
1.654 -2.1630001 2.723 85
1.623 -2.309 2.721 79
1.5930001 -2.457 2.7219999 80
1.719 -1.972 2.723 81
1.697 -2.1210001 2.723 94
1.671 -2.2690001 2.7179999 83
1.647 -2.4219999 2.7190001 64
1.645 -1.804 2.55 107
1.707 -2.039 2.671 150
1.722 -2.2349999 2.7219999 77
1.707 -2.3940001 2.7249999 90
1.67 -1.752 2.5380001 89
1.682 -1.9220001 2.5699999 150
1.6619999 -2.0610001 2.5550001 150
1.635 -2.1889999 2.529 77
1.702 -1.7079999 2.539 84
1.717 -1.878 2.566 150
1.7 -2.016 2.5450001 128
1.6950001 -2.1689999 2.5439999 100
1.789 -1.717 2.6210001 150
1.841 -1.926 2.6930001 150
1.844 -2.0910001 2.6919999 150
1.844 -2.2539999 2.6889999 123
1.89 -1.7359999 2.7219999 80
1.9 -1.902 2.7219999 100
1.9119999 -2.0739999 2.724 76
1.921 -2.2449999 2.724 88
1.921 -1.687 2.723 78
1.937 -1.8559999 2.721 94
1.9529999 -2.027 2.72 81
1.972 -2.204 2.723 87
1.952 -1.64 2.7249999 83
1.975 -1.8099999 2.723 86
1.999 -1.9859999 2.724 73
2.0209999 -2.1600001 2.721 90
1.979 -1.589 2.724 80
2.0120001 -1.765 2.7260001 87
2.04 -1.938 2.72 80
2.072 -2.1170001 2.721 85
2.0079999 -1.541 2.7249999 72
2.0439999 -1.714 2.7219999 91
2.082 -1.893 2.721 78
2.125 -2.0769999 2.7260001 99
2.0309999 -1.49 2.723 75
2.079 -1.668 2.7249999 93
2.1229999 -1.846 2.721 80
2.168 -2.026 2.7190001 89
2.0580001 -1.441 2.7249999 77
2.1099999 -1.618 2.724 82
2.1670001 -1.801 2.727 79
2.2179999 -1.982 2.7219999 83
2.0829999 -1.391 2.7260001 82
2.142 -1.569 2.7249999 89
2.2019999 -1.75 2.7219999 82
2.2720001 -1.9400001 2.7320001 93
2.1070001 -1.342 2.7279999 74
2.1719999 -1.5190001 2.7249999 90
2.24 -1.701 2.723 85
2.3150001 -1.8890001 2.7290001 92
2.128 -1.291 2.7279999 76
2.2019999 -1.469 2.7260001 89
2.28 -1.653 2.727 75
2.359 -1.8380001 2.7279999 91
2.1530001 -1.243 2.734 73
2.2260001 -1.416 2.7219999 87
2.312 -1.599 2.723 79
2.401 -1.785 2.727 91
2.1719999 -1.192 2.7320001 77
2.2550001 -1.3660001 2.724 87
2.3510001 -1.55 2.7290001 77
2.4460001 -1.735 2.7309999 95
2.1889999 -1.141 2.7309999 75
2.2839999 -1.317 2.7290001 85
2.381 -1.495 2.7249999 82
2.4560001 -1.66 2.6960001 98
2.2079999 -1.091 2.733 75
2.303 -1.262 2.723 82
2.414 -1.442 2.727 92
2.5150001 -1.618 2.7179999 96
2.2249999 -1.04 2.7349999 74
2.3299999 -1.21 2.727 86
2.4349999 -1.382 2.7149999 100
2.539 -1.553 2.7019999 128
2.234 -0.986 2.727 69
2.352 -1.158 2.727 83
2.4519999 -1.321 2.7030001 80
2.569 -1.493 2.6960001 104
2.2550001 -0.93800002 2.7349999 66
2.3770001 -1.1059999 2.7309999 88
2.4879999 -1.27 2.711 92
2.622 -1.446 2.714 100
2.267 -0.88700002 2.7349999 69
2.3959999 -1.052 2.7309999 97
2.517 -1.215 2.7130001 109
2.651 -1.3839999 2.7090001 131
2.277 -0.83499998 2.7320001 76
2.4170001 -0.99900001 2.7320001 99
2.5309999 -1.153 2.701 127
2.6760001 -1.3200001 2.7 123
2.29 -0.78399998 2.734 71
2.428 -0.94300002 2.7260001 99
2.5550001 -1.096 2.7 132
2.7279999 -1.2690001 2.721 110
2.303 -0.73400003 2.737 72
2.4360001 -0.88499999 2.7160001 99
2.5829999 -1.041 2.7060001 121
2.7679999 -1.212 2.7309999 91
2.309 -0.68199998 2.734 73
2.451 -0.83099997 2.7160001 108
2.6110001 -0.98500001 2.7119999 115
2.7980001 -1.15 2.7320001 86
2.323 -0.63300002 2.7409999 71
2.467 -0.77700001 2.7179999 103
2.6359999 -0.92799997 2.717 115
2.8280001 -1.0880001 2.7349999 90
2.326 -0.58099997 2.7360001 76
2.4790001 -0.722 2.717 116
2.6459999 -0.86500001 2.7079999 124
2.8529999 -1.023 2.734 89
2.335 -0.53100002 2.7390001 77
2.497 -0.66900003 2.724 115
2.6630001 -0.80599999 2.707 127
2.8789999 -0.958 2.7360001 95
2.3429999 -0.48100001 2.7420001 81
2.506 -0.61299998 2.7219999 116
2.677 -0.745 2.7049999 129
2.9100001 -0.89499998 2.744 88
2.345 -0.43099999 2.74 76
2.5139999 -0.55800003 2.72 121
2.7030001 -0.68800002 2.7160001 120
2.869 -0.81099999 2.6860001 60
2.3510001 -0.38100001 2.7420001 77
2.5179999 -0.50199997 2.714 101
2.72 -0.62800002 2.7190001 114
2.8529999 -0.736 2.6530001 55
2.355 -0.331 2.744 75
2.5420001 -0.449 2.733 97
2.7409999 -0.56900001 2.727 103
2.8570001 -0.667 2.641 54
2.3559999 -0.28099999 2.743 70
2.5550001 -0.39500001 2.74 86
2.7620001 -0.509 2.737 98
2.8540001 -0.59799999 2.6240001 55
2.3570001 -0.23100001 2.743 80
2.562 -0.33899999 2.7409999 87
2.7739999 -0.447 2.74 79
2.8510001 -0.52899998 2.609 55
2.359 -0.18099999 2.7449999 80
2.5669999 -0.28299999 2.7420001 86
2.7809999 -0.38499999 2.7390001 80
2.852 -0.461 2.598 56
2.3640001 -0.132 2.7509999 77
2.569 -0.227 2.7420001 90
2.7950001 -0.32300001 2.7449999 75
2.8510001 -0.39399999 2.589 58
2.3570001 -0.082000002 2.7449999 74
2.5739999 -0.17200001 2.744 90
2.7950001 -0.259 2.74 81
2.8540001 -0.32699999 2.5829999 56
2.3570001 -0.033 2.7479999 76
2.576 -0.116 2.7460001 90
2.8010001 -0.197 2.7420001 79
2.859 -0.25999999 2.5810001 58
2.3529999 0.015 2.747 76
2.569 -0.059999999 2.7390001 91
2.8069999 -0.134 2.7449999 87
2.852 -0.19400001 2.5699999 60
2.348 0.064000003 2.7460001 78
2.5780001 -0.0049999999 2.75 86
2.806 -0.071000002 2.743 83
2.849 -0.127 2.5639999 61
2.346 0.113 2.7490001 75
2.5739999 0.050000001 2.7479999 86
2.8069999 -0.0080000004 2.744 83
3.062 -0.064999998 2.7539999 93
2.3429999 0.161 2.7520001 80
2.5669999 0.106 2.744 94
2.806 0.054000001 2.7449999 80
3.0610001 0.0049999999 2.7520001 89
2.3310001 0.20900001 2.7460001 77
2.5680001 0.161 2.75 91
2.803 0.117 2.7449999 81
3.0580001 0.075999998 2.7509999 100
2.329 0.257 2.7520001 80
2.556 0.21600001 2.744 70
2.7969999 0.18000001 2.744 81
3.0580001 0.147 2.7539999 92
2.3180001 0.30500001 2.7479999 76
2.5480001 0.271 2.743 68
2.8 0.243 2.753 82
3.0539999 0.21799999 2.7550001 92
2.313 0.35299999 2.7520001 81
2.5409999 0.32600001 2.743 68
2.7920001 0.30599999 2.7509999 75
3.0439999 0.289 2.7520001 89
2.306 0.40000001 2.7539999 77
2.5409999 0.382 2.7539999 90
2.7780001 0.368 2.747 78
3.04 0.36000001 2.756 94
2.2920001 0.447 2.7509999 77
2.5320001 0.43599999 2.7539999 90
2.7739999 0.43099999 2.7520001 76
3.0339999 0.43099999 2.76 94
2.2850001 0.49399999 2.7550001 78
2.5209999 0.491 2.7550001 88
2.763 0.493 2.753 76
3.0220001 0.50199997 2.7609999 93
2.2739999 0.54100001 2.756 79
2.5079999 0.54500002 2.7539999 89
2.7449999 0.55400002 2.7479999 82
3.0090001 0.57300001 2.7609999 93
2.2620001 0.588 2.757 75
2.4879999 0.597 2.7460001 91
2.7390001 0.61699998 2.756 82
2.9920001 0.64200002 2.76 92
2.2449999 0.63300002 2.7520001 75
2.4820001 0.65200001 2.756 90
2.723 0.67799997 2.757 80
2.97 0.71100003 2.757 90
2.2379999 0.68099999 2.76 79
2.4660001 0.70499998 2.7550001 90
2.701 0.73799998 2.7509999 80
2.9579999 0.78100002 2.763 96
2.227 0.727 2.7639999 64
2.4460001 0.75700003 2.7520001 98
2.6900001 0.80000001 2.76 77
2.937 0.84899998 2.7620001 97
2.2090001 0.77200001 2.7609999 75
2.434 0.81099999 2.757 92
2.665 0.85900003 2.7550001 84
2.914 0.917 2.763 93
2.1930001 0.81699997 2.7620001 76
2.4170001 0.86400002 2.76 86
2.642 0.91799998 2.753 78
2.8929999 0.986 2.766 94
2.1760001 0.86199999 2.7609999 74
2.3959999 0.91500002 2.7579999 87
2.6259999 0.98000002 2.76 81
2.8659999 1.053 2.7650001 96
2.158 0.90600002 2.7609999 74
2.381 0.96899998 2.7639999 87
2.573 1.026 2.73 93
2.8380001 1.119 2.766 91
2.1400001 0.95099998 2.7609999 77
2.3559999 1.0190001 2.7609999 98
2.5539999 1.086 2.7360001 113
2.813 1.186 2.77 95
2.1210001 0.995 2.76 75
2.332 1.068 2.7579999 89
2.53 1.1440001 2.7379999 107
2.7809999 1.249 2.7690001 97
2.105 1.04 2.7650001 78
2.3110001 1.119 2.7620001 83
2.507 1.202 2.744 110
2.734 1.307 2.7550001 118
2.086 1.085 2.7679999 76
2.286 1.169 2.7620001 83
2.4719999 1.255 2.737 106
2.6919999 1.365 2.747 140
2.0650001 1.128 2.767 77
2.26 1.2180001 2.7620001 84
2.4530001 1.316 2.75 90
2.654 1.426 2.7460001 134
2.0409999 1.17 2.766 73
2.2349999 1.268 2.7639999 88
2.424 1.372 2.753 91
2.618 1.487 2.747 121
2.02 1.2130001 2.7679999 74
2.2079999 1.316 2.7639999 89
2.3989999 1.431 2.763 91
2.5769999 1.545 2.744 123
1.998 1.256 2.7690001 77
2.1789999 1.363 2.763 88
2.3699999 1.4859999 2.7679999 85
2.539 1.604 2.7460001 128
1.973 1.2970001 2.7679999 79
2.151 1.411 2.7650001 88
2.336 1.539 2.7690001 77
2.5020001 1.664 2.7520001 123
1.947 1.3380001 2.766 76
2.1199999 1.457 2.7639999 93
2.2980001 1.59 2.7690001 81
2.464 1.724 2.7579999 107
1.921 1.3789999 2.7650001 76
2.0910001 1.505 2.7679999 86
2.2620001 1.643 2.7709999 76
2.424 1.783 2.763 99
1.895 1.42 2.766 78
2.059 1.551 2.7690001 89
2.223 1.693 2.7720001 78
2.391 1.847 2.7780001 100
1.859 1.454 2.753 126
2.0239999 1.594 2.766 94
2.1830001 1.7410001 2.7709999 82
2.345 1.902 2.7809999 87
1.801 1.469 2.707 150
1.988 1.636 2.7639999 90
2.1429999 1.791 2.7739999 78
2.2950001 1.952 2.779 89
1.735 1.475 2.648 150
1.957 1.684 2.7690001 89
2.0999999 1.836 2.7720001 82
2.2449999 2.003 2.78 94
1.681 1.489 2.608 112
1.92 1.725 2.7679999 87
2.056 1.882 2.7720001 74
2.1960001 2.0539999 2.783 86
1.664 1.5369999 2.6259999 130
1.882 1.766 2.766 90
2.013 1.928 2.773 76
2.1440001 2.1010001 2.783 89
1.659 1.597 2.665 150
1.809 1.773 2.714 150
1.969 1.973 2.7750001 74
2.089 2.1470001 2.7809999 97
1.689 1.693 2.763 97
1.706 1.7460001 2.6140001 150
1.92 2.0139999 2.7720001 79
2.039 2.197 2.7880001 89
1.6619999 1.737 2.773 82
1.669 1.784 2.615 150
1.875 2.0580001 2.776 85
1.979 2.2360001 2.7820001 87
1.628 1.773 2.7709999 81
1.6569999 1.85 2.6570001 150
1.7079999 1.962 2.595 136
1.924 2.279 2.7839999 83
1.599 1.814 2.7780001 80
1.688 1.9680001 2.7709999 83
1.6569999 1.992 2.5869999 127
1.862 2.3139999 2.7780001 125
1.562 1.848 2.7750001 78
1.647 2.006 2.773 90
1.628 2.05 2.615 104
1.683 2.1960001 2.5929999 90
1.529 1.886 2.7780001 80
1.608 2.049 2.7809999 94
1.678 2.214 2.777 87
1.626 2.2290001 2.5899999 62
1.4910001 1.92 2.776 82
1.561 2.0810001 2.7750001 91
1.625 2.2490001 2.7750001 79
1.6900001 2.4349999 2.789 90
1.454 1.955 2.776 76
1.517 2.1159999 2.7750001 86
1.575 2.2880001 2.7809999 72
1.63 2.471 2.7909999 90
1.418 1.9910001 2.7780001 80
1.472 2.151 2.777 87
1.521 2.319 2.7780001 82
1.566 2.5 2.7869999 91
1.381 2.0250001 2.78 81
1.427 2.1849999 2.7780001 93
1.466 2.3510001 2.7780001 77
1.507 2.5350001 2.7920001 98
1.342 2.059 2.78 82
1.3789999 2.214 2.7750001 86
1.415 2.3870001 2.7839999 76
1.443 2.5639999 2.7920001 94
1.3 2.089 2.777 82
1.332 2.247 2.776 94
1.358 2.414 2.7809999 75
1.3789999 2.5910001 2.7909999 98
1.261 2.1229999 2.78 89
1.286 2.28 2.78 90
1.302 2.4419999 2.7809999 75
1.317 2.6199999 2.7950001 95
1.219 2.1530001 2.7780001 93
1.234 2.3050001 2.7739999 94
1.2460001 2.471 2.783 80
1.25 2.6400001 2.7909999 95
1.177 2.184 2.779 87
1.188 2.339 2.7809999 91
1.189 2.497 2.783 77
1.181 2.654 2.7820001 85
1.1339999 2.214 2.78 92
1.137 2.3670001 2.7820001 97
1.131 2.5220001 2.7839999 75
1.122 2.6889999 2.7969999 95
1.091 2.2449999 2.7820001 88
1.086 2.391 2.779 92
1.074 2.5450001 2.7839999 75
1.053 2.701 2.7880001 84
1.045 2.2690001 2.777 90
1.0369999 2.4219999 2.786 90
1.016 2.569 2.7869999 79
0.98799998 2.72 2.7909999 88
1.001 2.3 2.78 86
0.98400003 2.444 2.7839999 90
0.954 2.5810001 2.7780001 73
0.92199999 2.7390001 2.7939999 88
0.95499998 2.326 2.78 91
0.93099999 2.467 2.7820001 87
0.89700001 2.6099999 2.7880001 75
0.85600001 2.7550001 2.796 89
0.90799999 2.352 2.779 92
0.87900001 2.4920001 2.786 87
0.83700001 2.6270001 2.7880001 78
0.78899997 2.7650001 2.7939999 91
0.86299998 2.382 2.7850001 95
0.824 2.5109999 2.7839999 85
0.77600002 2.6400001 2.7839999 80
0.72299999 2.7809999 2.799 89
0.815 2.4070001 2.786 87
0.76999998 2.5309999 2.7839999 83
0.71700001 2.6600001 2.79 77
0.65700001 2.7909999 2.8 98
0.76499999 2.428 2.783 84
0.71700001 2.5539999 2.789 76
0.65600002 2.671 2.7880001 69
0.58899999 2.7920001 2.7939999 85
0.71700001 2.4549999 2.7880001 82
0.66100001 2.573 2.79 87
0.59500003 2.6819999 2.7869999 79
0.523 2.802 2.7980001 89
0.66600001 2.473 2.783 88
0.60399997 2.5829999 2.783 89
0.53299999 2.6919999 2.786 73
0.456 2.806 2.799 88
0.61400002 2.493 2.7820001 83
0.55000001 2.608 2.793 76
0.472 2.7049999 2.7909999 68
0.389 2.8069999 2.7969999 83
0.56400001 2.516 2.7850001 84
0.49200001 2.6159999 2.7869999 83
0.41 2.711 2.7880001 74
0.322 2.8099999 2.799 88
0.51200002 2.536 2.7869999 81
0.435 2.6329999 2.7909999 76
0.34900001 2.7219999 2.7939999 69
0.257 2.809 2.8 79
0.45899999 2.5510001 2.783 82
0.37799999 2.6459999 2.7920001 85
0.287 2.721 2.7880001 68
0.19 2.8010001 2.7939999 92
0.40599999 2.5739999 2.79 86
0.31999999 2.655 2.7909999 77
0.226 2.727 2.79 70
0.125 2.8 2.7980001 95
0.352 2.586 2.786 86
0.26199999 2.6630001 2.789 75
0.164 2.73 2.7920001 69
0.059999999 2.796 2.799 98
0.29800001 2.6059999 2.7909999 80
0.204 2.6760001 2.7939999 81
0.102 2.7309999 2.7909999 77
-0.0049999999 2.79 2.8010001 96
0.242 2.6229999 2.7950001 81
0.145 2.678 2.79 83
0.039999999 2.7260001 2.7869999 71
-0.068999998 2.7839999 2.803 96
0.186 2.6340001 2.793 77
0.086000003 2.6849999 2.7909999 81
-0.021 2.727 2.79 78
-0.134 2.773 2.802 89
0.13 2.642 2.789 92
0.027000001 2.6949999 2.7969999 77
-0.082000002 2.724 2.7909999 78
-0.19599999 2.756 2.7969999 93
0.074000001 2.6600001 2.7969999 83
-0.030999999 2.6919999 2.7909999 80
-0.14300001 2.72 2.793 77
-0.25999999 2.7479999 2.803 96
0.016000001 2.6689999 2.7969999 83
-0.090000004 2.691 2.7880001 82
-0.204 2.714 2.793 76
-0.322 2.7279999 2.7969999 87
-0.041000001 2.6730001 2.793 83
-0.15000001 2.698 2.7950001 84
-0.26499999 2.7060001 2.7920001 77
-0.38299999 2.711 2.796 97
-0.098999999 2.684 2.7969999 91
-0.20999999 2.694 2.7920001 80
-0.32600001 2.698 2.7939999 77
-0.44400001 2.6889999 2.7920001 81
-0.15800001 2.691 2.7980001 87
-0.26899999 2.6900001 2.79 80
-0.38600001 2.6849999 2.79 80
-0.50400001 2.6700001 2.7909999 89
-0.21699999 2.6919999 2.796 84
-0.33000001 2.6919999 2.796 82
-0.44600001 2.674 2.7920001 80
-0.56400001 2.652 2.7939999 83
-0.27599999 2.697 2.7980001 84
-0.389 2.6830001 2.793 81
-0.505 2.658 2.789 73
-0.62300003 2.6289999 2.793 91
-0.33500001 2.6949999 2.7939999 83
-0.44800001 2.6760001 2.7909999 82
-0.565 2.6459999 2.7909999 78
-0.68099999 2.6070001 2.7939999 82
-0.39500001 2.6930001 2.7920001 88
-0.50800002 2.6700001 2.793 79
-0.62300003 2.628 2.79 80
-0.73799998 2.5810001 2.7920001 86
-0.456 2.694 2.7939999 83
-0.56800002 2.6589999 2.7909999 78
-0.68099999 2.6110001 2.79 77
-0.796 2.559 2.796 89
-0.51599997 2.6889999 2.7920001 83
-0.62699997 2.648 2.79 79
-0.73900002 2.5940001 2.7909999 79
-0.85000002 2.529 2.7909999 84
-0.57800001 2.691 2.7969999 87
-0.68699998 2.6389999 2.7939999 75
-0.79699999 2.575 2.7920001 82
-0.90399998 2.5 2.79 88
-0.639 2.6889999 2.8010001 88
-0.74800003 2.632 2.799 89
-0.85299999 2.553 2.7909999 81
-0.95999998 2.4749999 2.7939999 90
-0.70099998 2.6849999 2.8039999 91
-0.80299997 2.6040001 2.786 78
-0.91000003 2.533 2.793 73
-1.01 2.4389999 2.7880001 90
-0.76099998 2.674 2.8010001 85
-0.86500001 2.5999999 2.7980001 89
-0.963 2.503 2.786 81
-1.062 2.4070001 2.786 94
-0.824 2.668 2.8050001 87
-0.92299998 2.5810001 2.7969999 91
-1.018 2.4790001 2.7869999 80
-1.115 2.3800001 2.7920001 92
-0.88499999 2.655 2.803 90
-0.98100001 2.562 2.7950001 87
-1.075 2.4590001 2.793 75
-1.164 2.346 2.7909999 94
-0.94599998 2.642 2.803 92
-1.041 2.5469999 2.8010001 90
-1.127 2.428 2.789 79
-1.2130001 2.3099999 2.79 89
-1.008 2.6300001 2.8039999 97
-1.097 2.523 2.7980001 82
-1.178 2.3959999 2.7839999 80
-1.262 2.277 2.7920001 94
-1.068 2.6110001 2.8010001 93
-1.153 2.4979999 2.7950001 82
-1.232 2.3710001 2.789 83
-1.306 2.2349999 2.7839999 88
-1.127 2.5899999 2.796 97
-1.21 2.4760001 2.7980001 87
-1.283 2.339 2.7880001 78
-1.352 2.198 2.7839999 87
-1.189 2.5739999 2.799 91
-1.266 2.45 2.7969999 88
-1.332 2.3039999 2.7839999 80
-1.397 2.161 2.7850001 91
-1.251 2.556 2.802 90
-1.321 2.4219999 2.7950001 84
-1.383 2.2750001 2.7880001 81
-1.442 2.1240001 2.786 89
-1.311 2.5339999 2.8010001 87
-1.3789999 2.3989999 2.8010001 90
-1.429 2.2360001 2.78 85
-1.48 2.0780001 2.777 90
-1.372 2.513 2.8039999 95
-1.433 2.3699999 2.8010001 89
-1.477 2.201 2.7809999 82
-1.523 2.0409999 2.7809999 88
-1.4299999 2.4849999 2.8 84
-1.483 2.3340001 2.7939999 95
-1.527 2.1689999 2.7850001 89
-1.564 2 2.7809999 85
-1.49 2.461 2.802 90
-1.538 2.3050001 2.7969999 83
-1.572 2.1300001 2.783 85
-1.603 1.9579999 2.78 89
-1.549 2.4319999 2.8010001 94
-1.59 2.2709999 2.796 88
-1.615 2.0899999 2.779 87
-1.642 1.9170001 2.7809999 83
-1.605 2.4000001 2.7980001 93
-1.64 2.2349999 2.7939999 95
-1.66 2.053 2.78 85
-1.6799999 1.875 2.7809999 87
-1.663 2.369 2.7980001 93
-1.693 2.2019999 2.796 96
-1.706 2.0150001 2.783 91
-1.7180001 1.8329999 2.7839999 83
-1.719 2.335 2.796 89
-1.742 2.1630001 2.7950001 92
-1.745 1.972 2.779 83
-1.751 1.788 2.7820001 85
-1.776 2.302 2.7969999 89
-1.791 2.125 2.793 89
-1.788 1.932 2.7809999 82
-1.7819999 1.7410001 2.777 86
-1.83 2.2639999 2.793 91
-1.842 2.089 2.7969999 91
-1.83 1.891 2.7820001 80
-1.814 1.6950001 2.776 87
-1.8839999 2.2260001 2.793 88
-1.887 2.046 2.7939999 98
-1.868 1.846 2.779 86
-1.851 1.654 2.783 84
-1.944 2.194 2.8 93
-1.938 2.0090001 2.8 60
-1.905 1.8 2.777 83
-1.88 1.607 2.7809999 83
-1.995 2.151 2.796 92
-1.983 1.965 2.7980001 95
-1.944 1.758 2.779 78
-1.908 1.5599999 2.779 89
-2.0280001 2.089 2.7690001 66
-2.027 1.921 2.7969999 92
-1.977 1.71 2.7750001 82
-1.936 1.513 2.7780001 85
-1.972 1.941 2.6259999 150
-2.0309999 1.84 2.744 150
-2.017 1.6670001 2.78 82
-1.965 1.467 2.78 87
-1.9809999 1.863 2.575 41
-1.973 1.7079999 2.6110001 134
-2.027 1.602 2.7479999 131
-1.989 1.419 2.777 79
-2.1889999 1.967 2.7809999 150
-1.9859999 1.643 2.5769999 45
-1.957 1.477 2.6099999 150
-2.016 1.372 2.779 88
-2.25 1.931 2.796 87
-2.1159999 1.6720001 2.6949999 150
-1.959 1.4119999 2.573 52
-2.0339999 1.3200001 2.7709999 98
-2.293 1.8789999 2.7909999 87
-2.2309999 1.683 2.7909999 90
-1.987 1.3660001 2.572 49
-1.989 1.23 2.6789999 150
-2.3399999 1.829 2.79 85
-2.2679999 1.632 2.789 88
-2.0739999 1.359 2.6470001 150
-1.9680001 1.159 2.6240001 121
-2.388 1.78 2.793 83
-2.3010001 1.5779999 2.7839999 87
-2.1949999 1.3710001 2.7650001 114
-1.964 1.1 2.5929999 60
-2.4300001 1.726 2.7909999 83
-2.342 1.53 2.789 89
-2.2279999 1.324 2.7720001 84
-1.969 1.048 2.575 45
-2.473 1.673 2.7909999 89
-2.3759999 1.478 2.789 98
-2.253 1.272 2.77 89
-1.993 1.005 2.5840001 49
-2.5150001 1.618 2.79 86
-2.4059999 1.4220001 2.7850001 82
-2.2820001 1.223 2.7739999 83
-2.0079999 0.95899999 2.582 50
-2.5510001 1.5599999 2.786 88
-2.438 1.368 2.7850001 95
-2.3039999 1.17 2.7709999 86
-2.1099999 0.95200002 2.6919999 150
-2.598 1.508 2.7939999 96
-2.47 1.314 2.786 93
-2.3239999 1.117 2.767 83
-2.168 0.92299998 2.747 150
-2.632 1.448 2.79 90
-2.4960001 1.257 2.7820001 96
-2.348 1.066 2.7709999 89
-2.1960001 0.88 2.763 134
-2.6670001 1.388 2.7880001 93
-2.529 1.202 2.786 91
-2.3629999 1.011 2.7639999 82
-2.207 0.82999998 2.7609999 91
-2.7049999 1.33 2.7920001 90
-2.5539999 1.1440001 2.7839999 93
-2.385 0.958 2.766 91
-2.2260001 0.78299999 2.7690001 81
-2.734 1.266 2.7869999 100
-2.573 1.084 2.776 90
-2.402 0.90399998 2.7650001 82
-2.24 0.73400003 2.7720001 81
-2.7579999 1.201 2.779 105
-2.6070001 1.029 2.7869999 97
-2.415 0.84899998 2.7609999 88
-2.2449999 0.68300003 2.7650001 84
-2.779 1.1339999 2.77 112
-2.6199999 0.96700001 2.777 92
-2.4330001 0.796 2.763 88
-2.257 0.63499999 2.7690001 80
-2.799 1.067 2.7620001 114
-2.642 0.90799999 2.777 85
-2.4489999 0.74299997 2.7639999 84
-2.2639999 0.58499998 2.767 84
-2.825 1.003 2.7620001 91
-2.6630001 0.84899998 2.7780001 96
-2.4619999 0.68800002 2.763 87
-2.2720001 0.53600001 2.7679999 85
-2.8759999 0.94700003 2.786 98
-2.681 0.78799999 2.7780001 90
-2.474 0.63300002 2.763 88
-2.2809999 0.48699999 2.77 87
-2.8989999 0.88 2.7850001 90
-2.6919999 0.72600001 2.7709999 96
-2.4849999 0.57800001 2.7620001 89
-2.286 0.43799999 2.7690001 82
-2.9100001 0.81099999 2.7750001 95
-2.711 0.66600001 2.7750001 93
-2.494 0.523 2.7620001 92
-2.289 0.389 2.767 88
-2.9349999 0.745 2.78 93
-2.727 0.60500002 2.776 91
-2.5009999 0.46799999 2.76 96
-2.2909999 0.33899999 2.7650001 79
-2.9460001 0.67500001 2.773 96
-2.734 0.542 2.7709999 95
-2.51 0.41299999 2.7609999 91
-2.299 0.29100001 2.7709999 89
-2.967 0.60799998 2.777 90
-2.747 0.48100001 2.7720001 98
-2.513 0.35800001 2.7579999 96
-2.2909999 0.242 2.76 80
-2.9849999 0.54000002 2.78 92
-2.7539999 0.41800001 2.7690001 95
-2.5190001 0.30199999 2.7579999 94
-2.296 0.193 2.7650001 86
-2.9949999 0.47 2.777 96
-2.757 0.35499999 2.7639999 95
-2.526 0.248 2.7620001 90
