# .PCD v0.7 - Point Cloud Data file format
VERSION 0.7
FIELDS x y z intensity
SIZE 4 4 4 4
TYPE F F F F
COUNT 1 1 1 1
WIDTH 1695
HEIGHT 1
VIEWPOINT 0 0 0 1 0 0 0
POINTS 1695
DATA ascii
2.6140001 -0.68699998 2.7160001 133
2.852 -0.69099998 2.7049999 63
2.1700001 -0.62800002 2.737 73
2.404 -0.63200003 2.7349999 94
2.631 -0.62800002 2.717 141
2.8510001 -0.62 2.687 56
2.1819999 -0.58399999 2.7360001 78
2.421 -0.57999998 2.7379999 102
2.648 -0.56900001 2.7179999 135
2.8469999 -0.55000001 2.6689999 56
2.2 -0.54000002 2.7420001 86
2.428 -0.52700001 2.73 97
2.6570001 -0.509 2.7130001 135
2.852 -0.48199999 2.6600001 54
2.21 -0.495 2.74 82
2.4300001 -0.472 2.7190001 91
2.6919999 -0.45300001 2.7360001 103
2.8440001 -0.412 2.6400001 56
2.221 -0.449 2.74 81
2.467 -0.42399999 2.747 87
2.7119999 -0.39300001 2.744 86
2.846 -0.34400001 2.6329999 54
2.2309999 -0.403 2.7390001 82
2.4760001 -0.37099999 2.7460001 86
2.724 -0.33199999 2.7460001 81
2.8529999 -0.27700001 2.6300001 59
2.24 -0.35699999 2.7379999 84
2.484 -0.317 2.744 85
2.733 -0.271 2.747 85
2.8510001 -0.20999999 2.622 57
2.2520001 -0.31099999 2.7420001 77
2.4979999 -0.264 2.75 83
2.7379999 -0.20900001 2.744 80
2.849 -0.14300001 2.615 53
2.2609999 -0.26499999 2.743 83
2.5009999 -0.20900001 2.7460001 86
2.744 -0.147 2.7449999 84
1.628 -0.043000001 1.492 4
2.2709999 -0.21799999 2.7460001 81
2.5050001 -0.155 2.743 86
2.7539999 -0.085000001 2.7490001 84
1.62 -0.0049999999 1.484 5
2.277 -0.171 2.7460001 74
2.5109999 -0.1 2.744 83
2.753 -0.023 2.7460001 83
1.617 0.032000002 1.4809999 5
2.2820001 -0.124 2.743 81
2.516 -0.045000002 2.7449999 84
2.7550001 0.039000001 2.7460001 85
1.64 0.071000002 1.503 3
2.289 -0.075999998 2.7460001 79
2.5179999 0.0080000004 2.744 86
2.7609999 0.101 2.753 84
3.0039999 0.2 2.7550001 90
2.293 -0.028000001 2.7460001 81
2.523 0.064000003 2.747 79
2.7539999 0.163 2.747 85
3.003 0.271 2.7579999 95
2.2980001 0.018999999 2.7479999 80
2.527 0.119 2.7520001 89
2.756 0.226 2.7509999 83
2.9960001 0.34099999 2.7579999 97
2.299 0.068000004 2.7449999 78
2.5220001 0.17399999 2.7460001 76
2.7520001 0.289 2.7509999 80
2.9879999 0.41100001 2.7590001 99
2.3 0.116 2.744 82
2.5220001 0.23 2.747 66
2.7460001 0.35100001 2.7509999 80
2.973 0.47999999 2.7550001 89
2.3039999 0.16500001 2.747 82
2.5190001 0.285 2.747 65
2.744 0.414 2.756 84
2.97 0.551 2.763 89
2.3069999 0.215 2.75 75
2.5120001 0.34 2.744 67
2.7360001 0.477 2.757 81
2.9579999 0.62 2.7650001 96
2.3 0.26300001 2.743 81
2.516 0.39700001 2.7539999 87
2.7249999 0.53899997 2.756 80
2.9419999 0.68900001 2.7639999 93
2.3080001 0.31400001 2.7539999 77
2.507 0.45300001 2.7509999 92
2.714 0.60000002 2.756 82
2.927 0.75800002 2.766 88
2.303 0.36300001 2.7520001 76
2.503 0.509 2.7539999 93
2.7060001 0.66299999 2.7609999 76
2.9070001 0.82499999 2.7650001 96
2.302 0.414 2.7539999 76
2.4979999 0.565 2.7590001 85
2.6889999 0.72399998 2.7590001 75
2.888 0.89300001 2.767 88
2.299 0.46399999 2.7550001 73
2.487 0.62 2.757 87
2.6689999 0.78399998 2.7539999 82
2.868 0.95999998 2.77 93
2.2939999 0.514 2.757 81
2.4749999 0.676 2.756 87
2.658 0.847 2.76 79
2.8410001 1.025 2.767 84
2.2869999 0.56400001 2.7539999 71
2.4660001 0.73199999 2.7590001 79
2.641 0.90700001 2.7620001 74
2.819 1.092 2.77 87
2.2850001 0.61699998 2.7620001 78
2.45 0.787 2.756 81
2.619 0.96700001 2.7590001 86
2.789 1.155 2.767 94
2.2750001 0.66600001 2.7590001 76
2.4349999 0.84200001 2.7550001 89
2.5840001 1.02 2.7449999 76
2.7650001 1.221 2.7720001 94
2.2650001 0.71700001 2.7579999 73
2.4230001 0.898 2.7590001 85
2.5539999 1.077 2.7379999 112
2.7160001 1.275 2.753 115
2.253 0.76700002 2.7550001 74
2.4070001 0.95300001 2.76 85
2.527 1.133 2.734 115
2.6789999 1.335 2.7479999 133
2.2449999 0.81900001 2.7590001 71
2.3900001 1.008 2.7609999 100
2.5109999 1.1950001 2.743 119
2.6470001 1.396 2.7490001 125
2.2349999 0.87099999 2.7609999 73
2.3729999 1.063 2.763 96
2.49 1.255 2.75 102
2.6159999 1.4579999 2.753 124
2.221 0.92199999 2.7590001 69
2.3510001 1.1160001 2.7609999 96
2.457 1.309 2.744 95
2.5769999 1.515 2.7490001 107
2.2130001 0.97600001 2.7679999 72
2.3310001 1.171 2.763 90
2.4300001 1.365 2.747 85
2.5380001 1.572 2.7479999 138
2.2 1.028 2.7709999 71
2.3110001 1.226 2.766 84
2.4200001 1.433 2.77 100
2.5039999 1.631 2.753 116
2.1819999 1.0779999 2.7679999 73
2.2869999 1.279 2.766 88
2.392 1.49 2.7750001 91
2.4749999 1.696 2.766 111
2.165 1.1289999 2.7690001 70
2.26 1.331 2.7650001 90
2.3610001 1.546 2.777 79
2.425 1.744 2.756 99
2.1459999 1.1799999 2.767 70
2.2390001 1.386 2.77 88
2.3199999 1.595 2.77 70
2.404 1.8150001 2.7820001 105
2.1289999 1.233 2.7720001 69
2.2090001 1.438 2.7679999 90
2.29 1.653 2.7780001 81
2.3610001 1.869 2.7839999 92
2.1059999 1.283 2.7690001 74
2.1789999 1.488 2.766 88
2.253 1.704 2.777 75
2.316 1.921 2.7850001 87
2.0840001 1.3329999 2.7690001 74
2.155 1.543 2.773 84
2.2130001 1.7539999 2.7750001 78
2.2679999 1.971 2.783 92
2.0669999 1.388 2.777 80
2.122 1.5930001 2.7720001 86
2.174 1.8049999 2.776 79
2.223 2.0220001 2.7869999 89
2.039 1.436 2.7709999 73
2.089 1.642 2.77 83
2.138 1.858 2.7820001 78
2.168 2.066 2.78 95
2.013 1.4859999 2.7720001 76
2.0610001 1.696 2.777 82
2.096 1.905 2.7809999 76
2.1199999 2.1140001 2.7820001 95
1.988 1.5369999 2.773 76
2.0250001 1.744 2.776 83
2.049 1.95 2.776 78
2.0699999 2.1600001 2.783 95
1.957 1.584 2.7690001 76
1.989 1.793 2.776 90
2.0079999 2 2.78 77
2.016 2.2030001 2.7820001 87
1.9299999 1.635 2.7709999 70
1.957 1.845 2.7820001 84
1.965 2.0469999 2.783 83
1.965 2.247 2.7839999 89
1.904 1.687 2.777 77
1.9170001 1.8890001 2.779 82
1.919 2.0899999 2.7820001 83
1.9119999 2.29 2.7850001 89
1.87 1.733 2.773 77
1.876 1.934 2.777 83
1.823 2.079 2.71 144
1.857 2.3299999 2.786 89
1.775 1.722 2.6800001 150
1.739 1.875 2.6300001 150
1.699 2.0280001 2.592 113
1.676 2.2030001 2.5910001 84
1.7029999 1.728 2.619 140
1.687 1.903 2.6099999 135
1.6619999 2.076 2.6040001 139
1.635 2.2539999 2.6099999 110
1.664 1.767 2.6110001 125
1.6390001 1.937 2.599 131
1.666 2.181 2.688 94
1.689 2.4419999 2.7869999 93
1.6210001 1.801 2.595 91
1.668 2.063 2.7119999 150
1.676 2.3 2.786 83
1.632 2.4779999 2.789 90
1.699 1.976 2.78 80
1.666 2.158 2.7809999 81
1.623 2.3340001 2.783 77
1.577 2.5150001 2.7950001 85
1.658 2.0190001 2.7780001 80
1.619 2.197 2.779 78
1.572 2.3729999 2.7850001 79
1.5140001 2.54 2.7880001 98
1.62 2.066 2.78 79
1.5779999 2.2449999 2.7880001 82
1.5190001 2.4100001 2.7869999 81
1.456 2.5739999 2.7920001 90
1.581 2.1140001 2.7850001 82
1.531 2.2880001 2.7920001 81
1.4630001 2.441 2.7839999 82
1.399 2.608 2.7980001 92
1.539 2.1589999 2.786 80
1.4809999 2.325 2.789 82
1.411 2.48 2.789 92
1.336 2.6300001 2.793 93
1.493 2.2 2.7820001 84
1.434 2.368 2.7950001 91
1.354 2.5090001 2.786 81
1.274 2.655 2.793 96
1.452 2.2490001 2.79 82
1.382 2.4030001 2.793 86
1.298 2.539 2.786 80
1.214 2.6830001 2.7969999 92
1.406 2.29 2.79 79
1.33 2.438 2.793 87
1.242 2.5699999 2.789 77
1.152 2.7030001 2.7950001 92
1.36 2.3329999 2.7920001 85
1.28 2.477 2.7980001 88
1.186 2.6010001 2.7920001 80
1.09 2.7249999 2.7969999 91
1.311 2.3740001 2.793 79
1.225 2.5079999 2.7950001 86
1.126 2.6259999 2.79 76
1.027 2.7449999 2.7969999 85
1.261 2.414 2.793 74
1.17 2.5420001 2.796 83
1.0700001 2.658 2.7969999 75
0.96600002 2.767 2.8010001 91
1.21 2.4519999 2.793 79
1.114 2.572 2.7950001 80
1.008 2.674 2.789 74
0.90200001 2.7809999 2.799 87
1.1569999 2.4879999 2.7909999 75
1.058 2.6040001 2.7969999 80
0.94800001 2.698 2.7909999 83
0.83999997 2.802 2.8050001 90
1.107 2.5309999 2.7980001 83
1 2.631 2.793 83
0.889 2.7249999 2.796 74
0.77600002 2.8139999 2.8039999 88
1.052 2.566 2.7980001 78
0.94199997 2.6589999 2.7939999 82
0.83099997 2.753 2.8039999 73
0.713 2.8269999 2.8050001 91
0.99800003 2.6070001 2.8050001 85
0.884 2.688 2.7969999 82
0.76700002 2.7620001 2.7950001 74
0.648 2.832 2.8 86
0.94199997 2.6400001 2.8050001 90
0.82300001 2.7090001 2.793 80
0.70599997 2.783 2.799 73
0.58399999 2.8410001 2.8 86
0.88200003 2.6670001 2.799 86
0.76599997 2.743 2.802 78
0.64300001 2.7969999 2.7969999 80
0.51899999 2.842 2.7939999 88
0.824 2.701 2.802 85
0.704 2.7639999 2.8010001 76
0.57999998 2.809 2.7950001 76
0.45699999 2.8540001 2.8 88
0.764 2.7279999 2.8 86
0.64200002 2.779 2.796 77
0.51899999 2.8280001 2.802 83
0.39300001 2.8570001 2.799 88
0.704 2.7590001 2.8039999 79
0.58099997 2.8080001 2.8050001 84
0.456 2.8399999 2.803 76
0.33000001 2.859 2.7980001 91
0.64200002 2.7869999 2.8050001 84
0.51800001 2.826 2.8039999 85
0.39199999 2.8469999 2.8 77
0.26699999 2.865 2.802 90
0.57999998 2.8180001 2.8099999 85
0.454 2.8399999 2.8010001 85
0.329 2.8599999 2.803 78
0.204 2.865 2.802 95
0.51499999 2.839 2.8069999 88
0.38999999 2.8570001 2.802 83
0.26499999 2.8670001 2.803 74
0.141 2.8640001 2.802 92
0.45100001 2.8629999 2.8080001 81
0.32499999 2.869 2.8 79
0.2 2.869 2.8 82
0.079000004 2.8640001 2.8050001 94
0.38499999 2.885 2.8080001 80
0.25999999 2.8789999 2.7969999 79
0.13699999 2.878 2.8039999 78
0.016000001 2.859 2.8039999 91
0.31799999 2.904 2.8069999 91
0.19400001 2.8940001 2.8 77
0.072999999 2.8759999 2.799 78
-0.045000002 2.8540001 2.8039999 89
0.25099999 2.928 2.813 90
0.12800001 2.905 2.8010001 81
0.0080000004 2.8789999 2.8010001 74
-0.107 2.849 2.806 98
0.183 2.9430001 2.8099999 87
0.061999999 2.9170001 2.8050001 77
-0.055 2.8829999 2.8039999 77
-0.169 2.8440001 2.8080001 99
0.114 2.9579999 2.8110001 85
-0.003 2.924 2.8050001 86
-0.119 2.881 2.803 82
-0.229 2.829 2.802 92
0.045000002 2.9719999 2.8110001 83
-0.071000002 2.9330001 2.809 81
-0.182 2.8740001 2.8 77
-0.29100001 2.823 2.8069999 88
-0.024 2.98 2.8069999 84
-0.138 2.9349999 2.8069999 90
-0.24699999 2.875 2.8050001 82
-0.35100001 2.8110001 2.8069999 92
-0.094999999 2.9949999 2.8110001 90
-0.205 2.937 2.8069999 85
-0.31099999 2.868 2.8039999 78
-0.41 2.7939999 2.802 89
-0.167 3.0090001 2.8169999 83
-0.273 2.9360001 2.8050001 81
-0.373 2.8559999 2.799 75
-0.47099999 2.7869999 2.8099999 89
-0.23800001 3.013 2.8139999 87
-0.34099999 2.934 2.8039999 85
-0.43700001 2.852 2.803 80
-0.52899998 2.767 2.8050001 99
-0.31099999 3.0179999 2.813 85
-0.40900001 2.9349999 2.8080001 80
-0.50099999 2.8440001 2.8050001 80
-0.58600003 2.7460001 2.8 95
-0.384 3.0239999 2.816 88
-0.477 2.928 2.8050001 83
-0.56400001 2.8299999 2.802 77
-0.64499998 2.734 2.806 93
-0.45699999 3.027 2.8180001 84
-0.54400003 2.9200001 2.802 80
-0.62699997 2.819 2.8039999 75
-0.70099998 2.711 2.802 97
-0.52999997 3.0190001 2.8110001 79
-0.61400002 2.9170001 2.8080001 87
-0.68900001 2.8039999 2.803 73
-0.75800002 2.6900001 2.802 95
-0.60500002 3.0250001 2.819 81
-0.68199998 2.9070001 2.806 84
-0.75099999 2.7869999 2.8010001 77
-0.81400001 2.6700001 2.803 100
-0.67799997 3.0179999 2.816 85
-0.74800003 2.8929999 2.803 81
-0.81300002 2.7720001 2.802 79
-0.86900002 2.648 2.803 93
-0.75199997 3.0120001 2.816 81
-0.81800002 2.885 2.8069999 83
-0.87400001 2.753 2.802 74
-0.92500001 2.6259999 2.8050001 93
-0.82700002 3.0050001 2.8169999 72
-0.88499999 2.8710001 2.8080001 87
-0.93400002 2.7320001 2.8 77
-0.98000002 2.6040001 2.8069999 93
-0.90100002 2.9949999 2.8169999 76
-0.95099998 2.8510001 2.803 88
-0.99599999 2.7160001 2.8050001 81
-1.0319999 2.575 2.803 91
-0.97399998 2.9809999 2.8139999 85
-1.0190001 2.836 2.8050001 81
-1.054 2.6900001 2.8 81
-1.084 2.5480001 2.802 97
-1.048 2.9649999 2.813 84
-1.087 2.8199999 2.8080001 79
-1.114 2.6670001 2.8010001 78
-1.138 2.5239999 2.806 91
-1.122 2.95 2.813 89
-1.152 2.7969999 2.806 80
-1.173 2.642 2.8 81
-1.188 2.494 2.8039999 96
-1.194 2.9289999 2.809 89
-1.22 2.7780001 2.8080001 87
-1.2309999 2.615 2.8 82
-1.239 2.464 2.803 89
-1.271 2.915 2.8150001 85
-1.285 2.7539999 2.8080001 82
-1.288 2.5880001 2.799 80
-1.291 2.438 2.8080001 95
-1.3430001 2.892 2.813 88
-1.35 2.727 2.806 85
-1.346 2.5610001 2.8 78
-1.339 2.405 2.8039999 95
-1.416 2.8670001 2.812 86
-1.415 2.7 2.806 88
-1.401 2.53 2.7980001 81
-1.3839999 2.368 2.799 93
-1.49 2.845 2.8150001 92
-1.478 2.671 2.8050001 89
-1.4579999 2.5 2.799 78
-1.433 2.3380001 2.802 89
-1.5599999 2.8139999 2.8110001 88
-1.541 2.6400001 2.8039999 74
-1.512 2.467 2.799 80
-1.4809999 2.3050001 2.803 93
-1.63 2.7820001 2.8080001 89
-1.6059999 2.6110001 2.8069999 88
-1.567 2.434 2.799 84
-1.521 2.2609999 2.7909999 80
-1.702 2.7520001 2.809 92
-1.6670001 2.5769999 2.806 82
-1.619 2.3989999 2.7969999 78
-1.571 2.233 2.799 92
-1.771 2.717 2.8080001 93
-1.727 2.54 2.803 84
-1.673 2.3640001 2.7980001 80
-1.6109999 2.1919999 2.793 84
-1.84 2.6800001 2.806 82
-1.788 2.5050001 2.8039999 82
-1.724 2.326 2.7969999 78
-1.656 2.1559999 2.7950001 83
-1.913 2.651 2.813 93
-1.85 2.47 2.8069999 79
-1.775 2.2880001 2.7969999 79
-1.698 2.118 2.793 91
-1.979 2.608 2.8099999 85
-1.908 2.428 2.8039999 81
-1.825 2.2490001 2.796 81
-1.74 2.0799999 2.793 85
-2.026 2.5420001 2.7820001 77
-1.966 2.388 2.8039999 83
-1.875 2.2090001 2.796 78
-1.778 2.0380001 2.789 92
-1.961 2.3440001 2.608 55
-2.0239999 2.346 2.8050001 80
-1.921 2.1659999 2.793 80
-1.8200001 1.999 2.79 91
-2.1270001 2.4230001 2.744 64
-1.974 2.1849999 2.661 128
-1.971 2.1259999 2.796 81
-1.86 1.96 2.7909999 93
-2.2349999 2.4260001 2.8 77
-1.974 2.0869999 2.592 48
-1.993 2.0569999 2.7609999 43
-1.9 1.921 2.7939999 81
-2.3050001 2.3859999 2.809 82
-2.131 2.152 2.7290001 115
-1.9960001 1.972 2.704 150
-1.937 1.878 2.7920001 87
-2.362 2.332 2.803 75
-2.2309999 2.152 2.789 77
-1.9579999 1.852 2.596 70
-1.973 1.835 2.7909999 86
-2.424 2.2809999 2.8039999 79
-2.2909999 2.1110001 2.799 78
-1.995 1.806 2.5910001 51
-2.0090001 1.793 2.7909999 88
-2.4849999 2.23 2.806 81
-2.3380001 2.0569999 2.7939999 78
-2.164 1.874 2.7550001 150
-1.9960001 1.7079999 2.7249999 134
-2.5420001 2.175 2.8050001 77
-2.3900001 2.0079999 2.7969999 72
-2.234 1.851 2.7920001 77
-1.964 1.6109999 2.6359999 116
-2.595 2.1140001 2.8 79
-2.441 1.957 2.799 80
-2.2739999 1.802 2.7909999 76
-1.9529999 1.535 2.5799999 55
-2.6530001 2.059 2.803 79
-2.487 1.902 2.7969999 79
-2.312 1.752 2.789 78
-1.985 1.495 2.582 54
-2.707 2 2.8039999 91
-2.53 1.845 2.7939999 82
-2.352 1.702 2.79 77
-2.1099999 1.522 2.704 98
-2.7520001 1.934 2.796 104
-2.5799999 1.793 2.8 78
-2.3889999 1.65 2.789 78
-2.188 1.51 2.7650001 150
-2.793 1.865 2.786 119
-2.6229999 1.735 2.799 87
-2.4230001 1.597 2.786 78
-2.2349999 1.475 2.786 97
-2.8340001 1.7970001 2.779 117
-2.6570001 1.6720001 2.7909999 83
-2.4619999 1.546 2.79 85
-2.2679999 1.431 2.7920001 88
-2.8740001 1.727 2.7709999 130
-2.7049999 1.617 2.7980001 82
-2.4960001 1.493 2.79 86
-2.2909999 1.38 2.7850001 91
-2.921 1.663 2.773 150
-2.737 1.552 2.79 98
-2.527 1.438 2.7880001 79
-2.3239999 1.335 2.7909999 87
-2.967 1.597 2.7750001 136
-2.767 1.487 2.783 106
-2.559 1.383 2.7880001 84
-2.348 1.285 2.7880001 93
-3.0009999 1.525 2.767 134
-2.8 1.423 2.78 112
-2.589 1.327 2.786 83
-2.3710001 1.234 2.7839999 98
-3.0469999 1.459 2.7739999 132
-2.822 1.354 2.767 113
-2.6159999 1.27 2.7839999 84
-2.395 1.1849999 2.7839999 97
-3.096 1.393 2.783 113
-2.855 1.291 2.7679999 125
-2.6459999 1.2130001 2.7850001 87
-2.4189999 1.135 2.7839999 94
-3.1400001 1.324 2.789 90
-2.8829999 1.226 2.7639999 120
-2.671 1.155 2.783 77
-2.438 1.0829999 2.779 86
-3.178 1.253 2.7920001 84
-2.9130001 1.16 2.763 132
-2.697 1.097 2.783 86
-2.461 1.033 2.78 88
-3.2090001 1.178 2.79 79
-2.9360001 1.0930001 2.7590001 140
-2.7249999 1.04 2.7869999 101
-2.4820001 0.98199999 2.78 89
-3.2360001 1.102 2.786 88
-2.967 1.028 2.763 106
-2.743 0.97899997 2.78 92
-2.5020001 0.93000001 2.78 90
-3.2690001 1.028 2.79 85
-3.0139999 0.96799999 2.783 85
-2.76 0.91799998 2.7750001 85
-2.5209999 0.87900001 2.78 91
-3.2909999 0.94999999 2.786 79
-3.036 0.89999998 2.7820001 84
-2.7839999 0.85900003 2.779 79
-2.539 0.82599998 2.779 89
-3.312 0.87199998 2.7820001 82
-3.0580001 0.83099997 2.7820001 90
-2.8039999 0.79799998 2.779 87
-2.5539999 0.773 2.776 83
-3.336 0.79500002 2.7839999 80
-3.076 0.76200002 2.779 86
-2.819 0.73699999 2.776 82
-2.572 0.72100002 2.7780001 89
-3.3540001 0.71600002 2.7809999 79
-3.0940001 0.69199997 2.7780001 84
-2.839 0.67699999 2.7780001 85
-2.586 0.667 2.776 86
-3.369 0.63700002 2.7780001 80
-3.1110001 0.62199998 2.7780001 88
-2.8499999 0.61400002 2.7739999 83
-2.5969999 0.61299998 2.7720001 91
-3.3900001 0.55900002 2.7809999 81
-3.125 0.551 2.777 90
-2.8640001 0.55199999 2.773 82
-2.6140001 0.56 2.776 90
-3.401 0.479 2.779 82
-3.1370001 0.48100001 2.7750001 86
-2.8800001 0.49000001 2.7750001 85
-2.6259999 0.50599998 2.7739999 90
-3.4130001 0.39899999 2.779 84
-3.1489999 0.41 2.7750001 88
-2.8870001 0.42699999 2.7709999 81
-2.631 0.44999999 2.7679999 83
-3.4200001 0.31900001 2.776 84
-3.1570001 0.338 2.7739999 86
-2.901 0.36500001 2.7739999 88
-2.6470001 0.39700001 2.7720001 87
-3.428 0.23800001 2.776 78
-3.165 0.26699999 2.773 84
-2.9070001 0.301 2.7709999 74
-2.6589999 0.34200001 2.7750001 87
-3.4300001 0.15800001 2.7720001 79
-3.174 0.19499999 2.7750001 93
-2.927 0.23899999 2.7820001 65
-2.6630001 0.28600001 2.77 89
-3.4360001 0.078000002 2.7739999 80
-3.175 0.123 2.77 84
-2.9189999 0.175 2.7690001 87
-2.671 0.23100001 2.7690001 90
-3.4389999 -0.001 2.7750001 80
-3.1760001 0.052000001 2.7690001 81
-2.9260001 0.111 2.77 86
-2.6800001 0.176 2.7720001 86
-3.428 -0.081 2.766 78
-3.1830001 -0.018999999 2.773 83
-2.927 0.048 2.767 90
-2.681 0.12 2.767 89
-3.431 -0.161 2.7709999 82
-3.178 -0.090999998 2.7679999 84
-2.9289999 -0.015 2.767 85
-2.6900001 0.064000003 2.7709999 94
-3.4260001 -0.241 2.77 84
-3.175 -0.162 2.7679999 84
-2.9330001 -0.079000004 2.77 82
-2.691 0.0080000004 2.7679999 85
-3.418 -0.32100001 2.7690001 87
-3.174 -0.234 2.77 87
-2.928 -0.142 2.7650001 87
-2.688 -0.046999998 2.7620001 89
-3.408 -0.39899999 2.7679999 81
-3.1659999 -0.30500001 2.767 84
-2.927 -0.206 2.766 83
-2.6960001 -0.104 2.7679999 94
-3.398 -0.479 2.7690001 82
-3.1570001 -0.377 2.766 82
-2.9219999 -0.27000001 2.763 82
-2.691 -0.16 2.763 84
-3.3740001 -0.55500001 2.7590001 77
-3.1500001 -0.44800001 2.766 88
-2.918 -0.33399999 2.763 84
-2.6919999 -0.21699999 2.763 91
-3.3629999 -0.634 2.7620001 90
-3.138 -0.51800001 2.7650001 83
-2.911 -0.39700001 2.7620001 85
-2.6949999 -0.27399999 2.767 86
-3.346 -0.71200001 2.7620001 88
-3.1270001 -0.58899999 2.7650001 84
-2.901 -0.46000001 2.7590001 87
-2.691 -0.331 2.7650001 87
-3.323 -0.787 2.7579999 85
-3.105 -0.65700001 2.7579999 98
-2.865 -0.51899999 2.733 120
-2.684 -0.38800001 2.7620001 85
-3.3099999 -0.86500001 2.7650001 87
-3.0810001 -0.72500002 2.7490001 106
-2.8570001 -0.58200002 2.734 125
-2.6830001 -0.44600001 2.7650001 81
-3.277 -0.93800002 2.756 95
-3.05 -0.79000002 2.737 121
-2.848 -0.64499998 2.7360001 122
-2.6760001 -0.50300002 2.7639999 81
-3.2509999 -1.012 2.7550001 78
-3.027 -0.85699999 2.733 141
-2.8410001 -0.708 2.7409999 146
-2.668 -0.56 2.7620001 78
-3.23 -1.087 2.7590001 80
-3.007 -0.92500001 2.733 122
-2.819 -0.76899999 2.733 122
-2.6589999 -0.61699998 2.7609999 86
-3.1989999 -1.159 2.756 93
-2.9809999 -0.99000001 2.7279999 138
-2.806 -0.83200002 2.7349999 128
-2.651 -0.67500001 2.7620001 78
-3.165 -1.23 2.753 82
-2.967 -1.0599999 2.7360001 127
-2.7839999 -0.89099997 2.7290001 116
-2.635 -0.73100001 2.7550001 82
-3.132 -1.3 2.7520001 87
-2.938 -1.124 2.733 124
-2.7690001 -0.954 2.7320001 108
-2.628 -0.78899997 2.76 83
-3.095 -1.369 2.7479999 83
-2.898 -1.183 2.7190001 120
-2.767 -1.021 2.7479999 110
-2.612 -0.84500003 2.7550001 79
-3.0239999 -1.421 2.7160001 132
-2.8759999 -1.25 2.724 119
-2.7490001 -1.0829999 2.75 109
-2.599 -0.903 2.756 81
-2.99 -1.489 2.7190001 146
-2.8540001 -1.317 2.73 112
-2.727 -1.143 2.75 103
-2.585 -0.95999998 2.756 77
-2.96 -1.559 2.7249999 127
-2.823 -1.38 2.73 104
-2.7030001 -1.204 2.75 85
-2.5680001 -1.017 2.7550001 79
-2.9089999 -1.618 2.7149999 119
-2.7839999 -1.438 2.723 114
-2.6789999 -1.263 2.7490001 86
-2.5480001 -1.073 2.7520001 79
-2.8670001 -1.681 2.714 127
-2.7639999 -1.507 2.7349999 103
-2.6500001 -1.322 2.7460001 86
-2.53 -1.13 2.7509999 77
-2.8399999 -1.753 2.7279999 79
-2.7379999 -1.573 2.744 86
-2.619 -1.378 2.7420001 80
-2.5120001 -1.187 2.7520001 90
-2.803 -1.819 2.7349999 86
-2.704 -1.6339999 2.7460001 83
-2.5910001 -1.437 2.7420001 78
-2.4909999 -1.244 2.7520001 85
-2.7590001 -1.88 2.737 92
-2.6659999 -1.693 2.7460001 85
-2.5569999 -1.492 2.737 82
-2.471 -1.301 2.753 85
-2.7119999 -1.939 2.737 95
-2.625 -1.75 2.744 83
-2.5350001 -1.554 2.7460001 80
-2.451 -1.359 2.756 96
-2.668 -2 2.7409999 88
-2.585 -1.808 2.744 84
-2.4979999 -1.607 2.74 82
-2.4219999 -1.4119999 2.75 90
-2.618 -2.0580001 2.7409999 93
-2.543 -1.863 2.743 78
-2.4619999 -1.6619999 2.737 74
-2.398 -1.4680001 2.7520001 87
-2.5680001 -2.112 2.7409999 92
-2.4979999 -1.9170001 2.7409999 80
-2.431 -1.719 2.7409999 78
-2.3740001 -1.526 2.7539999 86
-2.506 -2.1570001 2.73 97
-2.4560001 -1.973 2.743 78
-2.3940001 -1.773 2.74 80
-2.3369999 -1.575 2.7449999 87
-2.4560001 -2.2119999 2.734 93
-2.408 -2.023 2.7390001 82
-2.352 -1.823 2.734 74
-2.3169999 -1.636 2.7550001 98
-2.402 -2.263 2.734 91
-2.3570001 -2.0710001 2.734 85
-2.3210001 -1.882 2.7420001 82
-2.283 -1.687 2.75 93
-2.345 -2.3099999 2.7309999 93
-2.3110001 -2.1229999 2.7349999 81
-2.279 -1.932 2.7390001 85
-2.2479999 -1.739 2.7460001 93
-2.293 -2.3629999 2.737 92
-2.2650001 -2.175 2.7379999 88
-2.2349999 -1.9809999 2.734 77
-2.214 -1.791 2.743 101
-2.23 -2.402 2.7290001 90
-2.2119999 -2.22 2.734 86
-2.1949999 -2.033 2.737 83
-2.0780001 -1.758 2.615 59
-2.0309999 -2.2880001 2.552 63
-2.0150001 -2.1129999 2.5480001 86
-1.989 -1.925 2.529 52
-1.975 -1.747 2.526 39
-1.969 -2.319 2.543 60
-1.9579999 -2.1459999 2.536 49
-1.95 -1.972 2.5309999 50
-1.956 -1.808 2.5450001 56
-2.0280001 -2.5 2.6949999 75
-1.96 -2.2449999 2.6029999 129
-1.934 -2.043 2.5650001 126
-1.925 -1.86 2.55 88
-1.9910001 -2.5680001 2.7260001 74
-2.006 -2.4030001 2.7349999 89
-2.013 -2.2219999 2.73 82
-2.0309999 -2.0510001 2.7420001 85
-1.936 -2.615 2.7349999 90
-1.95 -2.4430001 2.7320001 52
-1.9680001 -2.2720001 2.734 79
-1.9910001 -2.102 2.7420001 87
-1.868 -2.6429999 2.7260001 89
-1.895 -2.4849999 2.733 82
-1.92 -2.316 2.733 81
-1.948 -2.1500001 2.74 89
-1.804 -2.6760001 2.724 87
-1.841 -2.526 2.7349999 87
-1.8710001 -2.362 2.734 75
-1.904 -2.197 2.7379999 86
-1.743 -2.7130001 2.727 62
-1.781 -2.5610001 2.73 89
-1.818 -2.401 2.7290001 79
-1.862 -2.2479999 2.7409999 91
-1.6799999 -2.744 2.727 94
-1.722 -2.5940001 2.727 84
0 0 0 50
-1.816 -2.2939999 2.7390001 93
-1.617 -2.776 2.7290001 89
-1.666 -2.635 2.7320001 90
-1.714 -2.484 2.7290001 76
-1.7690001 -2.3399999 2.7379999 87
-1.554 -2.8069999 2.7309999 88
-1.607 -2.668 2.7309999 89
-1.661 -2.5239999 2.7279999 72
-1.72 -2.385 2.7360001 89
-1.485 -2.8269999 2.724 88
-1.546 -2.7 2.73 84
0 0 0 50
-1.671 -2.4289999 2.7349999 89
-1.401 -2.8150001 2.688 150
-1.484 -2.7290001 2.7260001 89
-1.551 -2.6010001 2.7279999 72
-1.618 -2.4690001 2.73 83
-1.29 -2.74 2.595 150
-1.423 -2.7590001 2.7260001 82
-1.494 -2.6359999 2.7260001 71
-1.569 -2.5150001 2.7320001 82
-1.199 -2.698 2.5350001 85
0 0 0 50
-1.437 -2.671 2.7249999 76
-1.52 -2.562 2.7379999 85
-1.132 -2.7019999 2.5209999 57
-1.301 -2.8169999 2.7279999 88
-1.378 -2.7030001 2.723 74
-1.464 -2.599 2.733 86
-1.067 -2.71 2.5120001 51
-1.235 -2.835 2.72 112
-1.319 -2.7349999 2.721 74
-1.409 -2.6400001 2.734 90
-1.006 -2.7290001 2.5139999 44
-1.135 -2.7679999 2.6329999 150
0 0 0 50
-1.353 -2.6789999 2.733 96
-0.37400001 -1.085 0.99400002 36
-1.035 -2.691 2.539 104
-1.201 -2.8 2.724 85
-1.294 -2.714 2.7290001 92
-0.34900001 -1.089 0.99299997 14
-0.39199999 -1.09 1.02 0
-1.1390001 -2.8280001 2.7219999 85
-1.238 -2.7539999 2.7320001 92
-0.32100001 -1.0829999 0.98299998 16
-0.36300001 -1.081 1.005 65
-1.054 -2.7950001 2.664 150
-1.177 -2.786 2.7279999 93
-0.296 -1.082 0.97799999 17
-0.33700001 -1.081 0.99900001 11
-0.384 -1.091 1.03 5
-1.1160001 -2.819 2.727 88
-0.27200001 -1.084 0.977 18
-0.31 -1.076 0.98799998 56
-0.354 -1.082 1.012 45
-1.045 -2.826 2.701 134
-0.245 -1.073 0.96399999 16
-0.285 -1.077 0.98400003 12
-0.32499999 -1.074 0.99699998 10
-0.37200001 -1.082 1.022 24
-0.211 -1.027 0.921 14
-0.26300001 -1.092 0.99199998 15
-0.30000001 -1.075 0.99000001 13
-0.34400001 -1.0779999 1.008 47
-0.18700001 -1.022 0.91500002 15
-0.22499999 -1.0319999 0.93400002 9
-0.27599999 -1.0829999 0.99000001 15
-0.31400001 -1.071 0.991 12
-0.163 -1.0089999 0.90200001 11
-0.20100001 -1.026 0.92500001 11
-0.25 -1.081 0.98199999 12
-0.289 -1.076 0.986 65
-0.141 -1.011 0.90200001 15
-0.175 -1.01 0.90700001 9
-0.213 -1.024 0.92500001 10
-0.26499999 -1.085 0.986 16
-0.119 -1.003 0.89600003 11
-0.152 -1.01 0.90399998 10
-0.18799999 -1.015 0.91100001 10
-0.228 -1.033 0.93000001 10
-0.097000003 -1.003 0.89600003 11
-0.12899999 -1.002 0.89499998 10
-0.163 -1.006 0.89899999 10
-0.20100001 -1.024 0.91500002 12
-0.075000003 -1.001 0.89399999 13
-0.106 -0.99800003 0.88999999 9
-0.14 -1.005 0.89399999 10
-0.176 -1.017 0.903 11
-0.054000001 -1.0039999 0.89700001 12
-0.085000001 -1.001 0.89099997 10
-0.116 -0.99699998 0.88300002 10
-0.15000001 -1.005 0.88599998 12
-0.033 -1.01 0.90399998 11
-0.063000001 -0.99900001 0.88800001 11
-0.093999997 -1 0.88200003 10
-0.125 -0.99900001 0.87400001 10
-0.012 -1.0140001 0.90899998 11
-0.041999999 -1.008 0.89600003 11
-0.071000002 -0.99900001 0.87800002 11
-0.102 -0.99800003 0.86900002 11
0.0080000004 -1.016 0.91299999 12
-0.02 -1.0089999 0.89600003 10
-0.048999999 -1.003 0.88 11
-0.078000002 -0.99599999 0.86299998 12
0.029999999 -1.013 0.91299999 11
0.001 -1.01 0.898 10
-0.027000001 -1.007 0.88099998 11
-0.056000002 -1.007 0.86799997 12
0.052000001 -1.024 0.92500001 10
0.023 -1.011 0.89899999 10
-0.0040000002 -1.01 0.88300002 9
-0.032000002 -1.006 0.86400002 11
0.075000003 -1.056 0.95700002 8
0.045000002 -1.024 0.91100001 9
0.017000001 -1.016 0.88599998 10
-0.0089999996 -1.006 0.861 11
0.1 -1.076 0.97899997 12
0.068999998 -1.0470001 0.93400002 7
0.039999999 -1.016 0.88599998 10
0.013 -1.012 0.86299998 11
0.121 -1.064 0.97299999 9
0.093999997 -1.072 0.958 7
0.064999998 -1.048 0.91399997 7
0.037 -1.023 0.87 11
0.149 -1.1059999 1.016 6
0.117 -1.068 0.95700002 7
0.090999998 -1.0779999 0.94 7
0.063000001 -1.051 0.89300001 7
0.176 -1.1289999 1.0420001 4
0.146 -1.113 1 7
0.114 -1.063 0.92799997 7
0.090000004 -1.079 0.91600001 7
0.47999999 -2.7019999 2.5090001 56
0.171 -1.117 1.008 32
0.142 -1.0930001 0.95599997 5
0.113 -1.0599999 0.898 8
0.53799999 -2.6989999 2.5220001 94
0.50300002 -2.862 2.5910001 7
0.17900001 -1.1720001 1.027 7
0.14 -1.072 0.90799999 5
0.59899998 -2.7079999 2.546 150
0.55800003 -2.813 2.5580001 52
0.20100001 -1.141 1.002 4
0.18099999 -1.176 0.99699998 14
0.662 -2.7260001 2.5810001 150
0.61199999 -2.7750001 2.536 50
0.57300001 -2.872 2.529 50
0.51200002 -2.869 2.4349999 52
0.745 -2.8110001 2.681 150
0.66600001 -2.7349999 2.513 47
0.63999999 -2.8740001 2.54 51
0.58200002 -2.8710001 2.4400001 51
0.81199998 -2.826 2.7160001 90
0.722 -2.71 2.5050001 49
0.708 -2.8740001 2.55 49
0.64999998 -2.862 2.438 47
0.86900002 -2.8069999 2.7190001 90
0.78399998 -2.7060001 2.516 65
0.778 -2.8759999 2.5639999 51
0.72500002 -2.8759999 2.457 52
0.926 -2.7839999 2.72 92
0.84399998 -2.697 2.5250001 92
0.847 -2.8740001 2.575 50
0.79699999 -2.878 2.467 48
0.98199999 -2.7590001 2.7190001 94
0.912 -2.7049999 2.5510001 150
0.91500002 -2.8659999 2.582 51
0.87 -2.875 2.474 48
1.036 -2.7320001 2.7190001 85
0.99900001 -2.7639999 2.6270001 150
0.977 -2.836 2.5710001 51
0.94300002 -2.872 2.483 47
1.089 -2.7030001 2.717 95
1.0829999 -2.8080001 2.691 150
1.034 -2.796 2.552 46
1.0190001 -2.8729999 2.497 48
1.143 -2.6760001 2.717 94
1.153 -2.8069999 2.714 94
1.082 -2.7349999 2.5150001 48
1.098 -2.881 2.5190001 48
1.1950001 -2.6470001 2.7160001 82
1.217 -2.789 2.7219999 64
1.1440001 -2.711 2.513 52
1.173 -2.8729999 2.529 49
1.25 -2.6229999 2.7219999 94
1.274 -2.7579999 2.7179999 89
1.2079999 -2.6900001 2.516 48
1.257 -2.8800001 2.5539999 48
1.3 -2.5899999 2.7190001 98
1.3329999 -2.7279999 2.717 93
1.294 -2.717 2.5639999 150
1.337 -2.8770001 2.572 48
1.351 -2.559 2.7190001 101
1.392 -2.7 2.7179999 92
1.4 -2.777 2.6459999 150
1.413 -2.8610001 2.5799999 50
1.403 -2.529 2.7219999 101
1.45 -2.6689999 2.7190001 87
1.5 -2.813 2.7090001 105
1.472 -2.813 2.5610001 47
1.452 -2.497 2.7219999 97
1.507 -2.6370001 2.7190001 86
1.573 -2.796 2.723 70
1.525 -2.7520001 2.5320001 46
1.501 -2.4630001 2.721 89
1.563 -2.6040001 2.7190001 86
1.637 -2.763 2.723 73
1.582 -2.704 2.5150001 49
1.551 -2.4319999 2.7260001 98
1.619 -2.569 2.7190001 90
1.7 -2.727 2.721 75
1.6569999 -2.684 2.526 57
1.598 -2.3959999 2.7249999 90
1.675 -2.5350001 2.72 101
1.645 -2.5090001 2.5369999 78
1.722 -2.6470001 2.523 55
1.645 -2.359 2.7249999 94
1.716 -2.4790001 2.6989999 141
1.705 -2.477 2.5409999 150
1.919 -2.802 2.707 77
1.693 -2.325 2.7279999 98
1.663 -2.2939999 2.5369999 86
1.776 -2.4590001 2.559 46
1.9960001 -2.7709999 2.7149999 76
1.7180001 -2.2609999 2.6960001 150
1.725 -2.276 2.5569999 150
1.95 -2.575 2.7219999 72
2.066 -2.73 2.7160001 73
1.67 -2.1070001 2.556 150
1.888 -2.381 2.72 102
2.01 -2.5320001 2.721 75
2.1359999 -2.687 2.717 74
1.716 -2.076 2.563 150
1.944 -2.346 2.7260001 89
2.0699999 -2.49 2.7219999 71
2.204 -2.6429999 2.7179999 78
1.813 -2.105 2.6459999 150
1.9910001 -2.3010001 2.723 80
2.1300001 -2.4460001 2.723 68
2.2679999 -2.592 2.7149999 75
1.909 -2.1259999 2.724 98
2.0439999 -2.2609999 2.727 94
2.1830001 -2.3959999 2.7179999 71
2.3369999 -2.5450001 2.717 72
1.952 -2.0869999 2.7260001 94
2.092 -2.2149999 2.7249999 86
2.2420001 -2.3510001 2.7219999 72
2.4030001 -2.4960001 2.72 75
1.994 -2.046 2.7279999 94
2.1370001 -2.1670001 2.7219999 80
2.2980001 -2.302 2.7219999 71
2.4630001 -2.4400001 2.7160001 73
2.0320001 -2.0020001 2.7249999 86
2.188 -2.1240001 2.7260001 89
2.3510001 -2.2509999 2.721 73
2.526 -2.3859999 2.717 72
2.0739999 -1.961 2.7279999 91
2.2320001 -2.076 2.724 86
2.4000001 -2.1960001 2.7160001 69
2.589 -2.3310001 2.7190001 71
2.1129999 -1.918 2.73 93
2.279 -2.029 2.7260001 79
2.457 -2.1470001 2.721 75
2.6429999 -2.27 2.714 74
2.1489999 -1.8710001 2.727 87
2.3239999 -1.9809999 2.7279999 80
2.506 -2.0910001 2.7179999 73
2.7 -2.2090001 2.7119999 76
2.187 -1.827 2.7279999 96
2.3659999 -1.9299999 2.7260001 86
2.5550001 -2.0350001 2.7190001 79
2.766 -2.155 2.721 76
2.2249999 -1.7819999 2.73 95
2.408 -1.878 2.7249999 84
2.6099999 -1.983 2.724 72
2.8169999 -2.089 2.717 72
2.2579999 -1.734 2.727 89
2.4519999 -1.8279999 2.7290001 90
2.6559999 -1.925 2.724 76
2.8699999 -2.0250001 2.7160001 75
2.296 -1.6900001 2.7320001 92
2.4920001 -1.775 2.7279999 90
2.7 -1.864 2.721 72
2.927 -1.9630001 2.721 72
2.3310001 -1.642 2.733 96
2.51 -1.7079999 2.7060001 83
2.753 -1.809 2.73 72
2.9779999 -1.896 2.721 74
2.3610001 -1.592 2.7290001 89
2.5469999 -1.653 2.7049999 96
2.789 -1.743 2.7219999 76
3.027 -1.827 2.7219999 68
0 0 0 50
2.589 -1.601 2.71 127
2.832 -1.682 2.724 72
3.075 -1.7589999 2.723 74
2.425 -1.493 2.73 101
2.628 -1.5470001 2.7130001 116
2.878 -1.6210001 2.7279999 76
3.122 -1.688 2.724 71
2.4430001 -1.436 2.7160001 98
2.661 -1.49 2.7119999 115
2.9219999 -1.559 2.7320001 75
3.1659999 -1.615 2.723 72
2.474 -1.386 2.7179999 111
2.6960001 -1.433 2.7130001 138
2.9530001 -1.4910001 2.7260001 73
3.214 -1.545 2.7279999 70
2.503 -1.335 2.7179999 107
2.737 -1.3789999 2.721 113
2.9960001 -1.427 2.7320001 81
3.25 -1.469 2.7260001 72
2.52 -1.278 2.707 113
2.7809999 -1.326 2.734 93
3.0309999 -1.36 2.7320001 81
3.2920001 -1.395 2.7290001 72
2.556 -1.2309999 2.7160001 119
2.8169999 -1.2690001 2.74 91
3.062 -1.291 2.7309999 81
3.336 -1.3200001 2.7349999 71
2.575 -1.175 2.7079999 121
2.8429999 -1.206 2.7360001 80
3.098 -1.224 2.734 71
3.3629999 -1.24 2.7290001 74
2.605 -1.124 2.714 124
2.8759999 -1.147 2.7409999 89
3.131 -1.155 2.737 75
3.402 -1.163 2.734 74
2.6329999 -1.071 2.717 122
2.905 -1.085 2.743 83
3.1589999 -1.084 2.7360001 70
3.438 -1.085 2.7379999 63
2.6530001 -1.016 2.714 125
2.927 -1.022 2.7409999 81
3.188 -1.013 2.737 76
3.4560001 -1.001 2.7309999 69
2.675 -0.96100003 2.7130001 124
2.9560001 -0.95899999 2.744 90
3.211 -0.94 2.7360001 97
2.8429999 -0.75099999 2.2290001 59
2.71 -0.91000003 2.727 122
2.983 -0.89600003 2.7479999 89
2.839 -0.76099998 2.401 55
2.8499999 -0.68099999 2.2190001 64
2.7360001 -0.85600001 2.7309999 123
2.8469999 -0.78799999 2.6040001 53
2.845 -0.69400001 2.3889999 54
2.846 -0.60900003 2.2019999 65
2.757 -0.79900002 2.733 104
2.852 -0.722 2.5899999 54
2.8410001 -0.62400001 2.3710001 53
2.8410001 -0.53799999 2.1860001 72
2.7820001 -0.74400002 2.7390001 94
2.8510001 -0.65600002 2.573 58
2.8410001 -0.55599999 2.358 53
2.8440001 -0.46900001 2.177 72
2.8099999 -0.68800002 2.7479999 83
2.8510001 -0.58999997 2.5580001 56
2.8410001 -0.48899999 2.346 52
2.846 -0.40000001 2.1689999 70
2.825 -0.62900001 2.7460001 82
2.852 -0.52499998 2.546 58
2.8399999 -0.42199999 2.3340001 52
2.8429999 -0.33199999 2.1589999 70
2.8399999 -0.56999999 2.7449999 73
2.8499999 -0.46000001 2.5309999 62
2.8440001 -0.35699999 2.3280001 55
2.849 -0.264 2.1570001 69
2.8440001 -0.509 2.7349999 65
2.8440001 -0.39500001 2.5139999 61
2.845 -0.29100001 2.3210001 54
2.8399999 -0.19599999 2.1440001 78
2.8380001 -0.44600001 2.7149999 60
2.852 -0.333 2.5120001 61
2.842 -0.22499999 2.3110001 56
1.745 -0.079000004 1.3150001 7
2.8469999 -0.38600001 2.711 59
2.849 -0.26899999 2.5 60
2.8440001 -0.16 2.3069999 57
1.756 -0.037999999 1.321 36
2.8499999 -0.32499999 2.7030001 55
2.8429999 -0.205 2.487 62
1.705 -0.057 1.38 22
1.7309999 0.003 1.301 47
2.845 -0.26300001 2.687 53
1.6799999 -0.083999999 1.466 4
1.664 -0.017000001 1.346 38
1.74 0.044 1.308 42
2.8559999 -0.20299999 2.6889999 50
1.658 -0.046 1.443 22
1.668 0.02 1.348 37
3.6760001 0.18000001 2.7650001 58
2.8510001 -0.142 2.6760001 54
1.64 -0.0089999996 1.425 39
1.679 0.057999998 1.3559999 39
3.6619999 0.266 2.757 72
1.626 -0.046 1.523 0
1.643 0.027000001 1.426 55
1.76 0.102 1.421 19
3.6489999 0.35100001 2.7520001 76
1.619 -0.011 1.512 0
1.659 0.064000003 1.439 20
3.4089999 0.27599999 2.756 76
3.651 0.43799999 2.76 75
1.622 0.023 1.512 2
1.697 0.103 1.472 5
3.4030001 0.354 2.7550001 76
3.641 0.52399999 2.76 70
1.64 0.057999998 1.527 1
3.1800001 0.264 2.7590001 81
3.402 0.43200001 2.7590001 73
3.625 0.60900003 2.7579999 73
2.9630001 0.17 2.756 74
3.1730001 0.33500001 2.7539999 83
3.3940001 0.51099998 2.7590001 74
3.6159999 0.69499999 2.7620001 70
2.9679999 0.234 2.7590001 73
3.1719999 0.40599999 2.756 84
3.3870001 0.58899999 2.7609999 71
3.6059999 0.78200001 2.767 72
2.9690001 0.29899999 2.7590001 82
3.1719999 0.47799999 2.7609999 84
3.3759999 0.667 2.7620001 73
3.5799999 0.86400002 2.7620001 72
2.971 0.36500001 2.7609999 86
3.1630001 0.54900002 2.7579999 83
3.365 0.745 2.7639999 72
3.563 0.949 2.7650001 73
2.9679999 0.43000001 2.7590001 90
3.154 0.62 2.7579999 86
3.3540001 0.82300001 2.767 74
3.5420001 1.033 2.767 72
2.964 0.49599999 2.7590001 76
3.1530001 0.69300002 2.7650001 84
3.3369999 0.90100002 2.767 72
3.516 1.114 2.766 73
2.9649999 0.56199998 2.7639999 80
3.1400001 0.76499999 2.7639999 82
3.3139999 0.97600001 2.7650001 73
3.4949999 1.199 2.7720001 72
2.9619999 0.62900001 2.767 77
3.128 0.83600003 2.7639999 82
3.2980001 1.054 2.7679999 73
3.4660001 1.28 2.7720001 72
2.954 0.69599998 2.7650001 70
3.1159999 0.90799999 2.766 83
3.273 1.1289999 2.766 73
3.4289999 1.358 2.767 73
2.948 0.76300001 2.7679999 82
3.1010001 0.98000002 2.767 84
3.25 1.205 2.767 74
3.402 1.4400001 2.7720001 74
2.9400001 0.82999998 2.7690001 70
3.0810001 1.05 2.7650001 86
3.2279999 1.281 2.7709999 74
3.3670001 1.518 2.7720001 72
2.9289999 0.89700001 2.7690001 70
3.066 1.122 2.7679999 80
3.201 1.3559999 2.7709999 73
3.3280001 1.595 2.7709999 73
2.921 0.96499997 2.773 71
3.0450001 1.192 2.7679999 87
3.1689999 1.429 2.7690001 74
3.2980001 1.676 2.7780001 74
2.9059999 1.0319999 2.7720001 68
3.0220001 1.262 2.7679999 84
3.1440001 1.505 2.7750001 74
3.253 1.749 2.7750001 74
2.8859999 1.098 2.7679999 76
3.007 1.337 2.776 83
3.1110001 1.5779999 2.7750001 73
3.211 1.824 2.776 72
2.8770001 1.168 2.7750001 71
2.98 1.406 2.7739999 83
3.075 1.648 2.773 73
3.171 1.899 2.779 75
2.859 1.2359999 2.776 70
2.951 1.474 2.7720001 80
3.0420001 1.722 2.777 73
3.122 1.97 2.777 74
2.839 1.303 2.7750001 71
2.9260001 1.545 2.7750001 85
3.003 1.79 2.776 73
3.072 2.0380001 2.7750001 73
2.8169999 1.37 2.7750001 74
2.895 1.613 2.7750001 87
2.964 1.859 2.776 74
3.0309999 2.1140001 2.783 75
2.8 1.4400001 2.78 72
2.862 1.6799999 2.7739999 84
2.925 1.9299999 2.7780001 73
2.9790001 2.181 2.7809999 70
2.7720001 1.505 2.776 70
2.835 1.751 2.779 84
2.8829999 1.997 2.7780001 72
2.925 2.247 2.7809999 75
2.7490001 1.573 2.779 69
2.8 1.8200001 2.78 82
2.8399999 2.066 2.78 74
2.875 2.316 2.7850001 73
2.7119999 1.635 2.7690001 72
2.763 1.886 2.779 78
2.796 2.1329999 2.7820001 75
2.8199999 2.3800001 2.7850001 74
2.6600001 1.687 2.744 99
2.7320001 1.956 2.7850001 86
2.747 2.1960001 2.78 75
2.7620001 2.4419999 2.7839999 73
2.645 1.762 2.76 115
2.651 1.99 2.743 124
2.6659999 2.2320001 2.747 95
2.7060001 2.5050001 2.7880001 74
2.6129999 1.8279999 2.7609999 97
2.628 2.0680001 2.7620001 132
2.6459999 2.3199999 2.7780001 76
2.6500001 2.569 2.7909999 73
2.5940001 1.903 2.776 67
2.602 2.145 2.779 92
2.599 2.385 2.783 74
2.5829999 2.6210001 2.7850001 74
2.536 1.951 2.7509999 105
2.5320001 2.1849999 2.7509999 131
2.546 2.447 2.7850001 72
2.5280001 2.6860001 2.7939999 76
2.5139999 2.0280001 2.767 97
2.5 2.26 2.766 92
2.494 2.5079999 2.7869999 75
2.461 2.737 2.7909999 76
2.4879999 2.102 2.78 110
2.4719999 2.339 2.7869999 81
2.437 2.5650001 2.786 75
2.392 2.786 2.786 74
2.425 2.145 2.7539999 69
2.427 2.4030001 2.7909999 77
2.3800001 2.622 2.7869999 74
2.332 2.8429999 2.7920001 78
2.411 2.234 2.7869999 97
2.375 2.461 2.79 73
2.323 2.678 2.7880001 74
2.2650001 2.8940001 2.793 74
2.362 2.2920001 2.78 73
2.3280001 2.5250001 2.796 77
2.2639999 2.733 2.79 75
2.198 2.9430001 2.7939999 75
2.3239999 2.3599999 2.7869999 73
2.2750001 2.5840001 2.796 76
2.2019999 2.7839999 2.789 74
2.1300001 2.9909999 2.796 75
2.283 2.428 2.7939999 72
2.217 2.6370001 2.7920001 76
2.1429999 2.8399999 2.793 74
2.063 3.0409999 2.8 74
2.227 2.4820001 2.786 71
2.1630001 2.6960001 2.7950001 74
2.0769999 2.8870001 2.79 72
1.99 3.0810001 2.7980001 73
2.1800001 2.5450001 2.7880001 72
2.1059999 2.7509999 2.796 71
2.0109999 2.9349999 2.79 74
1.9220001 3.128 2.803 75
2.1289999 2.605 2.789 68
2.046 2.8010001 2.793 74
1.948 2.9849999 2.7939999 73
1.798 3.079 2.7260001 74
2.0739999 2.661 2.7880001 67
1.987 2.8559999 2.7950001 76
1.883 3.033 2.7969999 74
1.638 2.957 2.5869999 80
2.023 2.724 2.793 69
1.924 2.9059999 2.7939999 71
1.721 2.918 2.652 59
1.692 3.223 2.7880001 70
1.97 2.7850001 2.7969999 71
1.846 2.9330001 2.7720001 70
1.659 2.9630001 2.6570001 59
1.623 3.2690001 2.7980001 75
1.908 2.836 2.7920001 71
1.706 2.8529999 2.652 54
1.675 3.1589999 2.796 67
1.549 3.3039999 2.8 76
1.826 2.8570001 2.7579999 62
1.702 3.0009999 2.747 62
1.6059999 3.201 2.7980001 75
1.474 3.336 2.8010001 78
1.691 2.786 2.641 56
1.664 3.098 2.7939999 66
1.534 3.24 2.799 73
1.398 3.3659999 2.802 82
1.688 2.934 2.7320001 58
1.601 3.151 2.802 72
1.464 3.28 2.803 76
1.318 3.385 2.796 82
1.6619999 3.053 2.7950001 59
1.53 3.191 2.799 72
1.388 3.3099999 2.8 77
1.242 3.4130001 2.7980001 58
1.598 3.1059999 2.7980001 71
1.4579999 3.2309999 2.7969999 72
1.316 3.3469999 2.8039999 76
1.14 3.3659999 2.7409999 66
1.529 3.152 2.7950001 69
1.39 3.279 2.8039999 76
1.238 3.3710001 2.7980001 69
1.016 3.233 2.6170001 78
1.4630001 3.2060001 2.8010001 69
1.317 3.3180001 2.8050001 81
1.1619999 3.3989999 2.7969999 58
0.94199997 3.25 2.615 67
1.393 3.2520001 2.802 73
1.24 3.3429999 2.796 68
1.073 3.3859999 2.7650001 73
0.87199998 3.2750001 2.6240001 60
1.321 3.2950001 2.8 73
1.169 3.3900001 2.8050001 64
0.94700003 3.2379999 2.6240001 107
0.79100001 3.2579999 2.598 52
1.251 3.349 2.809 59
1.09 3.414 2.7969999 69
0.87099999 3.25 2.615 63
0.71799999 3.273 2.599 48
1.175 3.3870001 2.806 60
0.95300001 3.2420001 2.632 123
0.79500002 3.2590001 2.6059999 61
0.64499998 3.2839999 2.599 48
1.0880001 3.392 2.777 60
0.87699997 3.2579999 2.6210001 59
0.71700001 3.2539999 2.5880001 46
0.57200003 3.2939999 2.599 48
0.95300001 3.233 2.6170001 65
0.79699999 3.26 2.6010001 53
0.64399999 3.273 2.589 46
0.50099999 3.3199999 2.6129999 52
0.87300003 3.247 2.6010001 53
0.72100002 3.2739999 2.5929999 43
0.57300001 3.3080001 2.6040001 51
0.43399999 3.3740001 2.6500001 55
0.79900002 3.279 2.5999999 45
0.65700001 3.348 2.6329999 51
0.51200002 3.4059999 2.6689999 53
0.361 3.405 2.6700001 56
0.74599999 3.4100001 2.6789999 53
0.58899999 3.424 2.675 57
0.435 3.411 2.664 53
0.287 3.4170001 2.677 55
0.66100001 3.414 2.658 54
0.50700003 3.418 2.655 57
0.35800001 3.4200001 2.6619999 53
0.20900001 3.372 2.6400001 47
0.57700002 3.4130001 2.635 54
0.426 3.415 2.638 57
0.28 3.4159999 2.652 59
0.13699999 3.4130001 2.6719999 55
0.495 3.4189999 2.6199999 55
0.347 3.424 2.632 60
0.20200001 3.4089999 2.6400001 50
0.061999999 3.411 2.6719999 57
0.41100001 3.415 2.599 55
0.266 3.4100001 2.6099999 58
0.126 3.4189999 2.6440001 61
-0.011 3.405 2.6689999 56
0.329 3.4119999 2.5799999 54
0.18700001 3.418 2.6059999 59
0.048999999 3.4189999 2.641 59
-0.085000001 3.3859999 2.658 56
0.24600001 3.398 2.5550001 52
0.108 3.411 2.592 59
-0.027000001 3.4170001 2.6370001 58
-0.15800001 3.365 2.6470001 55
0.16500001 3.4119999 2.552 54
0.028999999 3.4089999 2.585 57
-0.103 3.421 2.6400001 58
-0.23 3.3399999 2.632 54
0.082999997 3.408 2.5369999 57
-0.048999999 3.414 2.5829999 60
-0.18000001 3.418 2.6389999 60
-0.29899999 3.3069999 2.6140001 50
0.001 3.4130001 2.53 54
-0.12800001 3.415 2.579 58
-0.257 3.4130001 2.6370001 59
-0.36899999 3.2820001 2.6029999 48
-0.079999998 3.4159999 2.5239999 58
-0.207 3.4100001 2.573 58
-0.33399999 3.415 2.6429999 60
-0.44 3.2690001 2.602 47
-0.161 3.4089999 2.5109999 60
-0.287 3.4170001 2.5769999 60
-0.41100001 3.418 2.6500001 59
-0.50800002 3.2479999 2.596 52
-0.244 3.411 2.507 57
-0.36700001 3.4130001 2.5739999 60
-0.48800001 3.4089999 2.6489999 60
-0.57999998 3.2460001 2.605 59
-0.32600001 3.4070001 2.5 57
-0.447 3.4089999 2.572 60
-0.56599998 3.4100001 2.6570001 54
-0.65100002 3.24 2.6140001 63
-0.40799999 3.405 2.4960001 61
-0.528 3.414 2.579 59
-0.64300001 3.404 2.661 53
-0.72100002 3.227 2.618 68
-0.49399999 3.418 2.5039999 60
-0.60900003 3.4119999 2.582 61
-0.71799999 3.378 2.652 53
-0.81599998 3.316 2.7060001 46
-0.57599998 3.411 2.4990001 60
-0.69199997 3.415 2.5899999 60
-0.77899998 3.3039999 2.605 41
-0.91000003 3.381 2.777 68
-0.66100001 3.4089999 2.5 54
-0.77600002 3.4200001 2.602 57
-0.85799998 3.3050001 2.618 48
-0.98900002 3.3840001 2.7980001 75
-0.74800003 3.414 2.507 55
-0.85699999 3.4119999 2.605 60
-0.92699999 3.27 2.605 49
-1.066 3.375 2.812 78
-0.83399999 3.4130001 2.5120001 55
-0.94300002 3.414 2.6159999 60
-1 3.2509999 2.605 50
-1.1339999 3.342 2.806 77
-0.92000002 3.4100001 2.516 56
-1.029 3.414 2.6289999 60
-1.081 3.253 2.6240001 55
-1.2029999 3.312 2.8039999 73
-1.011 3.414 2.527 56
-1.1160001 3.4159999 2.6440001 58
-1.16 3.2460001 2.6359999 65
-1.276 3.289 2.8099999 77
-1.099 3.4089999 2.5339999 57
-1.2029999 3.411 2.6559999 57
-1.284 3.3559999 2.7460001 69
-1.344 3.257 2.8080001 71
-1.188 3.4030001 2.5409999 56
-1.286 3.3940001 2.6589999 53
-1.377 3.3710001 2.7820001 76
-1.4119999 3.2260001 2.8080001 72
-1.284 3.411 2.5610001 57
-1.357 3.346 2.641 51
-1.466 3.375 2.809 75
-1.48 3.194 2.809 75
-1.38 3.4130001 2.579 56
-1.424 3.289 2.6159999 49
-1.544 3.349 2.813 74
-1.544 3.155 2.8050001 72
-1.477 3.4119999 2.595 55
-1.501 3.2579999 2.6129999 51
-1.623 3.322 2.819 75
-1.61 3.1210001 2.806 75
-1.576 3.414 2.6170001 56
-1.584 3.2360001 2.619 62
-1.6950001 3.2820001 2.8139999 75
-1.676 3.085 2.8069999 74
-1.678 3.4159999 2.6400001 56
-1.711 3.3010001 2.698 60
-1.768 3.2460001 2.8139999 36
-1.739 3.046 2.8050001 76
-1.7690001 3.392 2.645 42
-1.8430001 3.3629999 2.7780001 57
-1.839 3.204 2.8110001 74
-1.801 3.0039999 2.803 72
-1.872 3.3859999 2.6670001 53
-1.951 3.3699999 2.8139999 72
-1.91 3.1619999 2.8080001 74
-1.865 2.967 2.8069999 73
-1.936 3.3110001 2.6359999 51
-2.026 3.3210001 2.8069999 72
-1.985 3.1270001 2.8139999 74
-1.9299999 2.931 2.812 61
-2.0050001 3.247 2.615 54
-1.988 3.095 2.6489999 58
-2.0439999 3.0680001 2.799 70
-1.982 2.8759999 2.8 74
-2.135 3.2780001 2.6730001 64
-2.1589999 3.1949999 2.7720001 69
-1.972 2.822 2.612 52
-2.036 2.825 2.7920001 74
-2.3110001 3.368 2.783 70
-2.2690001 3.1960001 2.813 72
-2.152 2.9389999 2.7620001 64
-1.983 2.632 2.6440001 59
-2.428 3.3610001 2.8169999 70
-2.3499999 3.1530001 2.8169999 71
-2.257 2.9430001 2.809 74
-2.0139999 2.5599999 2.6140001 47
-2.5209999 3.3180001 2.823 69
-2.425 3.0999999 2.8150001 71
-2.3199999 2.8900001 2.806 73
-2.2160001 2.697 2.8010001 72
-2.6040001 3.2609999 2.819 70
-2.4990001 3.0469999 2.813 72
-2.3889999 2.8440001 2.809 76
-2.2679999 2.645 2.7969999 74
-2.6889999 3.2049999 2.819 68
-2.572 2.9909999 2.8110001 72
-2.451 2.7909999 2.8069999 72
-2.3239999 2.5969999 2.7980001 73
-2.7750001 3.151 2.822 70
-2.6429999 2.9330001 2.809 71
-2.51 2.734 2.803 74
-2.378 2.5469999 2.7980001 75
-2.8510001 3.0840001 2.8150001 69
-2.7160001 2.878 2.8110001 74
-2.5739999 2.681 2.8050001 72
-2.427 2.493 2.7950001 75
-2.931 3.0209999 2.8139999 65
-2.7880001 2.8199999 2.812 73
-2.635 2.6259999 2.8050001 76
-2.483 2.4449999 2.799 74
-3.016 2.9630001 2.8199999 69
-2.845 2.747 2.799 80
-2.691 2.566 2.802 73
-2.5339999 2.3929999 2.8 73
-3.0880001 2.8889999 2.813 69
-2.9189999 2.691 2.806 74
-2.7550001 2.513 2.8069999 74
-2.582 2.3369999 2.7980001 75
-3.1619999 2.819 2.812 70
-2.99 2.632 2.812 69
-2.809 2.45 2.8039999 73
-2.6259999 2.279 2.793 71
-3.237 2.75 2.813 71
-3.05 2.5610001 2.806 74
-2.8610001 2.3870001 2.8010001 70
-2.6789999 2.2279999 2.799 78
-3.3080001 2.675 2.8110001 70
-3.115 2.4960001 2.8080001 71
-2.9170001 2.326 2.802 74
-2.7260001 2.1730001 2.8 80
-3.3740001 2.5969999 2.8069999 69
-3.1719999 2.4230001 2.8039999 72
-2.9330001 2.2349999 2.767 99
-2.763 2.108 2.79 96
-3.444 2.5209999 2.8080001 70
-3.243 2.3610001 2.8139999 70
-2.9949999 2.1789999 2.777 102
-2.799 2.0450001 2.783 101
-3.51 2.4419999 2.8069999 71
-3.2909999 2.2809999 2.8050001 74
-3.0469999 2.1159999 2.779 106
-2.839 1.984 2.78 106
-3.566 2.3559999 2.8010001 66
-3.3440001 2.2049999 2.802 73
-3.1099999 2.059 2.7920001 76
-2.8729999 1.92 2.7720001 114
-3.632 2.277 2.8039999 72
-3.4000001 2.131 2.803 73
-3.164 1.9960001 2.7980001 73
-2.915 1.86 2.7739999 126
-3.6860001 2.1889999 2.7980001 71
-3.448 2.052 2.799 74
-3.21 1.927 2.7969999 77
-2.9579999 1.802 2.777 134
-3.7379999 2.0999999 2.7939999 71
-3.5020001 1.977 2.802 70
-3.2520001 1.8559999 2.7950001 73
-2.99 1.7359999 2.77 115
-3.8010001 2.0179999 2.8 71
-3.549 1.896 2.799 73
-3.2920001 1.784 2.793 75
-3.029 1.675 2.773 121
-3.852 1.927 2.7969999 72
-3.586 1.811 2.7909999 72
-3.3369999 1.714 2.7950001 75
-3.0680001 1.614 2.776 86
-3.898 1.835 2.7939999 72
-3.6359999 1.733 2.796 75
-3.3699999 1.638 2.789 73
-3.1059999 1.551 2.777 77
-3.95 1.7460001 2.7950001 72
-3.6789999 1.65 2.7950001 74
-3.4059999 1.564 2.7880001 75
-3.152 1.493 2.7880001 74
-3.99 1.65 2.7909999 74
-3.714 1.564 2.79 75
-3.451 1.493 2.7939999 78
-3.1800001 1.425 2.7850001 76
-4.0170002 1.55 2.779 74
-3.757 1.4809999 2.793 76
-3.4820001 1.4170001 2.7909999 77
-3.2079999 1.357 2.7809999 75
-4.04 1.449 2.766 72
-3.7920001 1.395 2.7909999 73
-3.5109999 1.339 2.7880001 76
-3.2379999 1.291 2.7809999 74
-4.0430002 1.342 2.7420001 69
-3.825 1.309 2.789 73
-3.5450001 1.263 2.789 77
-3.2679999 1.224 2.7820001 76
-4.0419998 1.2359999 2.7179999 68
-3.8599999 1.222 2.79 74
-3.573 1.1849999 2.7869999 78
-3.296 1.156 2.7820001 63
-4.052 1.1339999 2.7019999 67
-3.882 1.132 2.7839999 75
-3.5929999 1.105 2.78 75
-3.3210001 1.087 2.7809999 75
-4.0430002 1.028 2.6760001 67
-3.9130001 1.044 2.7850001 74
-3.6229999 1.027 2.7820001 77
-3.342 1.017 2.777 72
-4.0440001 0.92699999 2.6589999 65
-3.9389999 0.95499998 2.7850001 74
-3.6440001 0.94700003 2.779 72
-3.365 0.94700003 2.776 71
-4.0450001 0.82700002 2.6429999 66
-3.964 0.86500001 2.7850001 76
-3.6670001 0.86699998 2.7780001 76
-3.3900001 0.87699997 2.777 73
-4.0469999 0.727 2.6300001 67
